-0.211411	0.237047	-0.144507	220	170	70
0.260465	-0.679173	-0.2039	220	170	70
-0.515238	0.142093	0.188065	220	170	70
0.481928	-0.437187	-0.591387	220	170	70
-0.40172	0.308304	-0.048325	220	170	70
0.309408	-0.643361	-0.327767	220	170	70
0.117222	-0.638742	-0.322152	220	170	70
-0.377345	0.311537	-0.212427	220	170	70
0.149749	-0.621671	-0.354032	220	170	70
-0.146924	0.61594	-0.172739	220	170	70
-0.6561	-0.128138	-0.214829	220	170	70
-0.681799	0.023242	-0.16387	220	170	70
-0.131016	0.633781	-0.414222	220	170	70
0.366824	-0.333735	-0.593704	220	170	70
-0.122796	-0.100164	-0.43453	220	170	70
0.475341	-0.44175	-0.554895	220	170	70
0.498683	0.473546	-0.346614	220	170	70
-0.32586	-0.01975	0.065399	220	170	70
-0.370423	0.482354	-0.206371	220	170	70
0.011091	0.408431	-0.354646	220	170	70
-0.656739	-0.115383	0.084092	220	170	70
0.380692	-0.570764	-0.457235	220	170	70
0.269985	0.469146	-0.313665	220	170	70
0.437537	-0.495893	-0.379729	220	170	70
-0.673058	0.02968	-0.122206	220	170	70
0.062215	0.462341	-0.211796	220	170	70
-0.470916	0.470114	-0.349189	220	170	70
-0.30148	-0.453692	0.155842	220	170	70
0.095318	0.473186	-0.563206	220	170	70
-0.471753	0.06273	-0.12758	220	170	70
-0.596545	0.112119	-0.173782	220	170	70
0.102477	-0.463402	-0.357699	220	170	70
-0.430173	-0.476626	-0.053594	220	170	70
0.134401	0.372379	-0.376798	220	170	70
-0.023202	0.699136	-0.352549	220	170	70
-0.249987	0.463702	0.025125	220	170	70
0.376479	0.255715	-0.475608	220	170	70
-0.211536	0.520959	-0.001966	220	170	70
0.271583	0.243132	-0.30764	220	170	70
-0.53611	0.361617	-0.195936	220	170	70
-0.558452	0.448256	-0.2631	220	170	70
-0.334747	-0.581573	-0.23913	220	170	70
-0.546095	0.124377	0.161968	220	170	70
-0.139196	0.099809	-0.420856	220	170	70
0.038708	0.686585	-0.144575	220	170	70
0.237465	-0.639747	-0.325459	220	170	70
-0.37334	-0.574507	-0.028027	220	170	70
-0.072674	-0.682735	-0.164793	220	170	70
-0.493949	0.18951	-0.533184	220	170	70
0.407656	-0.353709	-0.487543	220	170	70
0.078715	0.469572	-0.504689	220	170	70
-0.06442	-0.012307	-0.47485	220	170	70
-0.140425	0.45794	-0.475931	220	170	70
0.239118	-0.657507	-0.176318	220	170	70
-0.252628	-0.314876	-0.415318	220	170	70
-0.143785	-0.065617	-0.44733	220	170	70
-0.433191	0.31618	-0.030286	220	170	70
-0.487463	0.185562	-0.154452	220	170	70
-0.206991	0.438346	-0.073803	220	170	70
-0.542026	-0.000324	-0.362517	220	170	70
0.266051	-0.63943	-0.294588	220	170	70
-0.014895	-0.01356	-0.512936	220	170	70
-0.190258	-0.510313	-0.053452	220	170	70
-0.566148	0.09833	-0.254423	220	170	70
0.116561	-0.659429	-0.282063	220	170	70
-0.429279	0.323355	-0.238417	220	170	70
0.387577	-0.430886	-0.352818	220	170	70
0.151702	-0.609307	-0.519831	220	170	70
0.382386	0.273466	-0.48257	220	170	70
-0.057196	-0.023312	-0.429087	220	170	70
-0.401524	0.131308	0.304691	220	170	70
-0.680919	-0.368818	-0.006576	220	170	70
0.310423	-0.412162	-0.401103	220	170	70
0.244726	-0.518604	-0.339321	220	170	70
-0.359233	0.1316	0.308137	220	170	70
-0.19992	-0.471905	-0.338339	220	170	70
-0.021716	0.189464	-0.260823	220	170	70
-0.013381	0.592198	0.016288	220	170	70
-0.053986	-0.046147	-0.437944	220	170	70
-0.447237	0.231508	-0.487638	220	170	70
-0.104512	-0.57274	-0.047874	220	170	70
0.044347	0.695887	-0.285374	220	170	70
-0.295866	0.132121	0.21309	220	170	70
-0.473687	-0.127677	-0.100471	220	170	70
-0.438011	-0.515581	-0.186222	220	170	70
-0.351097	0.081355	0.280257	220	170	70
-0.459931	-0.176019	0.177178	220	170	70
-0.207405	-0.430215	0.110162	220	170	70
0.453275	0.459354	-0.3631	220	170	70
0.292982	-0.647301	-0.326778	220	170	70
0.06221	0.614329	-0.294263	220	170	70
-0.284343	0.549597	-0.252935	220	170	70
0.442409	0.4622	-0.344796	220	170	70
-0.126629	0.096019	-0.4132	220	170	70
-0.312162	0.63748	-0.044546	220	170	70
-0.490865	0.196597	-0.522424	220	170	70
0.060416	-0.646031	-0.039683	220	170	70
-0.552369	0.076504	-0.25246	220	170	70
-0.451149	-0.045499	0.248055	220	170	70
-0.510379	0.091794	-0.510188	220	170	70
-0.251891	-0.546754	-0.293679	220	170	70
-0.245133	-0.517846	-0.121459	220	170	70
-0.326807	0.50254	-0.030264	220	170	70
-0.348403	-0.491011	-0.117377	220	170	70
0.028635	0.479702	-0.410916	220	170	70
-0.631958	0.015641	-0.216611	220	170	70
-0.483345	-0.439497	-0.281123	220	170	70
0.089274	0.717986	-0.210511	220	170	70
-0.433507	-0.381497	-0.076832	220	170	70
0.047781	-0.643376	0.017607	220	170	70
-0.172525	-0.565819	-0.035055	220	170	70
-0.305372	-0.393807	-0.085349	220	170	70
-0.282243	-0.474508	0.132138	220	170	70
0.134001	-0.710123	-0.003255	220	170	70
-0.602774	0.024116	-0.190824	220	170	70
0.217136	-0.330708	-0.34098	220	170	70
-0.406793	-0.332956	-0.044871	220	170	70
0.005977	0.120531	-0.516487	220	170	70
0.181732	0.59591	-0.466262	220	170	70
-0.394591	0.475459	0.202162	220	170	70
-0.431306	-0.421681	0.137945	220	170	70
0.266343	-0.283161	-0.278191	220	170	70
0.27062	0.234588	-0.307303	220	170	70
-0.461299	-0.364016	0.133069	220	170	70
0.102852	-0.460865	-0.151958	220	170	70
0.514791	0.324213	-0.445926	220	170	70
-0.451332	-0.451601	-0.029364	220	170	70
0.437854	-0.623658	-0.452966	220	170	70
0.251285	-0.396125	-0.523345	220	170	70
0.03441	-0.468407	-0.081612	220	170	70
-0.330708	-0.347832	-0.018748	220	170	70
-0.01376	0.544837	-0.150334	220	170	70
-0.329935	0.211529	-0.390764	220	170	70
-0.583147	0.044036	-0.13013	220	170	70
-0.171178	-0.196473	-0.374289	220	170	70
0.521654	-0.511707	-0.545025	220	170	70
0.419281	0.477036	-0.510861	220	170	70
-0.042109	-0.293459	-0.210347	220	170	70
-0.490062	-0.245187	-0.279083	220	170	70
-0.440505	0.087532	-0.214375	220	170	70
-0.572227	0.170847	-0.341262	220	170	70
0.268448	-0.60947	-0.179405	220	170	70
-0.299418	0.325658	-0.281041	220	170	70
-0.663851	0.125353	-0.358331	220	170	70
0.34268	0.615553	-0.575813	220	170	70
-0.264481	0.46898	-0.003079	220	170	70
0.121226	-0.370813	-0.446104	220	170	70
-0.399665	-0.163369	0.272986	220	170	70
0.459604	-0.15667	-0.544754	220	170	70
-0.11176	0.226894	-0.526789	220	170	70
-0.545632	0.189656	0.098539	220	170	70
0.222063	-0.618343	-0.552189	220	170	70
-0.328857	-0.139001	0.311308	220	170	70
-0.264272	-0.438435	-0.452439	220	170	70
0.330841	0.477841	-0.415241	220	170	70
0.15351	-0.744616	-0.545418	220	170	70
0.219481	-0.204334	-0.476083	220	170	70
-0.591783	-0.116882	-0.029836	220	170	70
0.159366	0.693791	-0.099357	220	170	70
0.018111	-0.168213	-0.202405	220	170	70
-0.419595	-0.311801	0.048369	220	170	70
-0.004448	0.369149	-0.294168	220	170	70
0.303138	-0.738894	-0.402616	220	170	70
-0.186642	-0.482063	-0.128347	220	170	70
-0.110473	0.646156	-0.190839	220	170	70
-0.087425	-0.564862	-0.131316	220	170	70
-0.364075	-0.053489	-0.024887	220	170	70
-0.139308	-0.219429	-0.218607	220	170	70
0.526948	-0.00162	-0.555738	220	170	70
0.004332	0.329849	-0.408248	220	170	70
0.451032	-0.341885	-0.520402	220	170	70
-0.140032	-0.700777	-0.170698	220	170	70
-0.354672	0.39893	-0.047559	220	170	70
-0.540044	0.20623	-0.583951	220	170	70
0.097197	0.589443	-0.270777	220	170	70
-0.520064	-0.305819	-0.308426	220	170	70
0.290614	-0.483117	-0.50722	220	170	70
-0.622304	0.1905	-0.26192	220	170	70
-0.393872	0.254995	0.233528	220	170	70
-0.521924	-0.010718	-0.186592	220	170	70
-0.472291	0.307089	-0.44706	220	170	70
-0.132055	-0.238663	-0.310139	220	170	70
0.546594	0.375916	-0.470167	220	170	70
0.503222	-0.45621	-0.617987	220	170	70
0.033627	0.120576	-0.382604	220	170	70
-0.491358	-0.101409	-0.067332	220	170	70
0.481225	-0.547456	-0.346201	220	170	70
-0.400718	0.637552	0.013194	220	170	70
-0.043721	-0.028989	-0.449896	220	170	70
-0.029086	0.667176	-0.123212	220	170	70
0.147098	-0.832678	-0.52416	220	170	70
-0.582569	-0.129315	-0.04963	220	170	70
0.133779	0.473625	-0.154872	220	170	70
-0.460041	0.248983	0.130939	220	170	70
-0.349567	0.13806	0.308237	220	170	70
-0.029844	-0.514939	-0.4247	220	170	70
0.403791	0.430364	-0.486367	220	170	70
0.272001	0.456648	-0.284629	220	170	70
0.068416	-0.359926	-0.176956	220	170	70
-0.121613	0.327621	-0.030991	220	170	70
-0.657962	0.118108	-0.211588	220	170	70
0.297219	0.21261	-0.465248	220	170	70
-0.328368	-0.292721	0.107224	220	170	70
-0.401838	-0.307627	-0.026699	220	170	70
-0.622808	-0.320924	-0.009597	220	170	70
-0.536596	-0.109318	-0.12582	220	170	70
0.288472	0.592618	-0.511983	220	170	70
-0.357796	0.591112	-0.300913	220	170	70
-0.633766	-0.179675	0.019623	220	170	70
0.149152	-0.764311	-0.547695	220	170	70
0.122726	0.628187	-0.52994	220	170	70
0.48153	0.263776	-0.451428	220	170	70
-0.132722	0.07913	-0.481611	220	170	70
-0.625657	0.031532	-0.216768	220	170	70
-0.431414	0.070189	0.083507	220	170	70
-0.402417	0.51289	-0.036427	220	170	70
0.281494	-0.352088	-0.278582	220	170	70
-0.339399	-0.661378	-0.392392	220	170	70
0.022063	0.527124	-0.551075	220	170	70
-0.65882	0.011786	-0.162594	220	170	70
-0.551388	0.206494	0.168515	220	170	70
-0.242839	-0.597664	-0.009437	220	170	70
0.222443	-0.254277	-0.509593	220	170	70
-0.231969	-0.062703	0.047894	220	170	70
-0.433026	-0.248044	0.242363	220	170	70
-0.349881	0.496632	-0.171218	220	170	70
-0.258779	0.259238	-0.276014	220	170	70
-0.257635	0.451805	-0.002882	220	170	70
-0.295613	-0.555525	-0.320923	220	170	70
0.064043	-0.34382	-0.184546	220	170	70
-0.26988	0.642802	-0.398135	220	170	70
0.217832	0.594963	-0.463503	220	170	70
-0.571984	0.226694	0.077912	220	170	70
0.191494	-0.663769	-0.107017	220	170	70
-0.014709	0.217698	-0.214209	220	170	70
-0.253515	0.46178	-0.149135	220	170	70
-0.339076	-0.076398	0.313831	220	170	70
0.150965	0.242216	-0.499936	220	170	70
-0.28012	0.350299	0.300966	220	170	70
0.395516	0.331018	-0.356072	220	170	70
0.243134	-0.263465	-0.511558	220	170	70
0.040818	0.57217	-0.005388	220	170	70
-0.480038	0.262873	0.124924	220	170	70
-0.586331	0.144917	-0.149634	220	170	70
-0.454555	0.249381	-0.448539	220	170	70
-0.250717	-0.504378	-0.135587	220	170	70
0.046528	-0.179702	-0.490169	220	170	70
-0.35092	-0.207316	0.2676	220	170	70
-0.566097	-0.310375	-0.253496	220	170	70
0.026845	-0.731963	-0.370393	220	170	70
0.083892	0.668664	-0.213943	220	170	70
0.370893	-0.170767	-0.361749	220	170	70
-0.600694	0.335594	-0.30991	220	170	70
-0.58388	0.370386	-0.332236	220	170	70
0.335634	0.552706	-0.503525	220	170	70
-0.458519	0.158347	0.320874	220	170	70
0.133403	-0.307787	-0.455009	220	170	70
0.357402	-0.395743	-0.354791	220	170	70
0.003953	0.207517	-0.517409	220	170	70
-0.270883	-0.027215	0.170903	220	170	70
-0.350112	0.620562	0.134687	220	170	70
-0.151396	-0.393615	-0.346771	220	170	70
-0.494683	0.459815	-0.163244	220	170	70
0.332937	0.60864	-0.576806	220	170	70
-0.139542	0.390714	-0.343202	220	170	70
0.290596	-0.475562	-0.477325	220	170	70
0.490316	0.443296	-0.484314	220	170	70
-0.046385	-0.038372	-0.531303	220	170	70
0.028288	0.309647	-0.534203	220	170	70
-0.27351	-0.464241	-0.451979	220	170	70
0.517098	0.271066	-0.428038	220	170	70
-0.356771	0.154178	0.324333	220	170	70
-0.018342	-0.000988	-0.513671	220	170	70
-0.522469	0.207735	0.049391	220	170	70
0.349223	-0.254229	-0.48757	220	170	70
-0.28586	0.202485	-0.111682	220	170	70
0.583062	-0.368425	-0.404385	220	170	70
-0.006942	0.02666	-0.481573	220	170	70
0.264819	0.323693	-0.461583	220	170	70
-0.175855	0.497892	-0.307209	220	170	70
0.20701	-0.089893	-0.047704	220	170	70
0.034906	0.223905	-0.070925	220	170	70
0.131812	-0.057304	-0.301735	220	170	70
0.126094	0.126183	-0.28804	220	170	70
0.154606	-0.044235	0.011644	220	170	70
0.174253	-0.126364	-0.182563	220	170	70
0.036324	-0.216124	-0.21639	220	170	70
0.225723	0.086424	-0.189272	220	170	70
0.217799	-0.094092	0.364667	220	170	70
0.110988	0.192875	0.5006	220	170	70
0.236904	-0.108281	0.274377	220	170	70
0.093471	-0.110685	0.255062	220	170	70
-0.076095	-0.136231	0.502366	220	170	70
0.185875	-0.193801	0.277521	220	170	70
0.123914	-0.228281	0.387448	220	170	70
0.185868	0.101492	0.461309	220	170	70
-0.145706	-0.305204	0.322647	220	170	70
-0.328736	0.003624	0.160618	220	170	70
-0.046022	-0.470974	-0.045838	220	170	70
-0.182574	0.298709	0.099656	220	170	70
-0.286104	-0.298646	0.242438	220	170	70
-0.125916	-0.225432	0.512937	220	170	70
-0.132367	-0.440284	0.138416	220	170	70
-0.167577	0.033646	0.464083	220	170	70
0.471983	-0.052261	-0.000097	220	170	70
0.152783	0.428199	-0.160462	220	170	70
0.378466	-0.083687	-0.428653	220	170	70
0.209882	0.224365	-0.326643	220	170	70
0.379467	-0.002601	0.122509	220	170	70
0.381371	-0.31349	-0.201046	220	170	70
0.30826	-0.347103	-0.336342	220	170	70
0.433134	0.086545	-0.342038	220	170	70
0.362743	-0.142767	0.058312	220	170	70
0.207079	0.301669	0.0088	220	170	70
0.282427	-0.11113	-0.275224	220	170	70
0.229744	0.171766	-0.247626	220	170	70
0.290951	-0.155896	0.099683	220	170	70
0.273072	-0.193409	-0.109791	220	170	70
0.10719	-0.377869	-0.168274	220	170	70
0.356728	0.116208	-0.089403	220	170	70
0.150355	-0.136159	0.354154	220	170	70
0.175168	0.086997	0.424251	220	170	70
0.202334	-0.079711	0.395907	220	170	70
0.185019	0.046979	0.458054	220	170	70
0.133535	-0.071205	0.365201	220	170	70
0.17786	-0.11739	0.36479	220	170	70
0.194222	-0.111841	0.368759	220	170	70
0.17054	0.001332	0.407179	220	170	70
0.160864	-0.123124	0.340995	220	170	70
0.192744	0.06955	0.429009	220	170	70
0.191666	-0.09617	0.431394	220	170	70
0.193042	0.03461	0.435771	220	170	70
0.136019	-0.114545	0.302745	220	170	70
0.182032	-0.131923	0.317073	220	170	70
0.197334	-0.112575	0.380036	220	170	70
0.166055	-0.031969	0.40087	220	170	70
0.376016	-0.13101	0.108342	220	170	70
0.043795	0.419756	0.080985	220	170	70
0.35796	-0.089072	-0.190982	220	170	70
0.083704	0.443681	-0.112566	220	170	70
0.258036	-0.060955	0.23951	220	170	70
0.414353	-0.075722	-0.102295	220	170	70
0.047732	-0.441962	0.052048	220	170	70
0.39156	0.307746	-0.011247	220	170	70
0.171307	-0.124414	0.319048	220	170	70
0.180775	0.061833	0.419518	220	170	70
0.219948	-0.109308	0.336369	220	170	70
0.189118	0.029491	0.443945	220	170	70
0.117527	-0.136953	0.313595	220	170	70
0.195166	-0.11978	0.352228	220	170	70
0.19269	-0.138585	0.3706	220	170	70
0.162916	-0.017274	0.458437	220	170	70
-0.04747	-0.418176	0.11835	220	170	70
-0.334001	0.088243	0.03449	220	170	70
-0.026629	-0.500979	-0.075972	220	170	70
-0.170589	0.381682	-0.060582	220	170	70
-0.281568	-0.371374	0.039849	220	170	70
0.016296	-0.345364	0.074461	220	170	70
-0.105534	-0.529486	-0.02078	220	170	70
-0.042843	0.277812	0.015369	220	170	70
0.14705	-0.135289	0.33333	220	170	70
0.197322	0.056444	0.380186	220	170	70
0.209358	-0.09585	0.387381	220	170	70
0.188133	-0.034705	0.465872	220	170	70
0.148128	-0.121301	0.357037	220	170	70
0.179529	-0.097898	0.39769	220	170	70
0.17924	-0.13689	0.354883	220	170	70
0.147225	-0.094085	0.406792	220	170	70
0.270869	-0.097356	0.382315	220	170	70
0.187393	0.243953	0.332352	220	170	70
0.307337	0.006679	-0.0184	220	170	70
0.267429	0.177695	0.050985	220	170	70
0.246968	-0.004171	0.44445	220	170	70
0.28232	-0.10647	0.287691	220	170	70
0.098242	-0.295812	0.085251	220	170	70
0.29512	0.13212	0.235971	220	170	70
0.1815	-0.119022	0.32698	220	170	70
0.191183	0.105777	0.382978	220	170	70
0.203771	-0.095788	0.374312	220	170	70
0.195316	0.090139	0.430861	220	170	70
0.157238	-0.077569	0.371796	220	170	70
0.202205	-0.093228	0.346276	220	170	70
0.193993	-0.108956	0.398055	220	170	70
0.196316	0.075108	0.399825	220	170	70
-0.245252	-0.083723	0.503477	220	170	70
-0.418879	0.245843	0.246231	220	170	70
-0.325893	-0.189297	0.233933	220	170	70
-0.301302	0.425515	0.343198	220	170	70
-0.440378	0.071348	0.314326	220	170	70
-0.274964	-0.083981	0.477095	220	170	70
-0.280109	-0.326328	0.314413	220	170	70
-0.19918	0.379963	0.364718	220	170	70
0.355369	-0.083444	0.044461	220	170	70
0.216131	0.308137	-0.025564	220	170	70
0.226968	-0.037983	-0.342873	220	170	70
0.175216	0.172815	-0.290128	220	170	70
0.308133	0.054146	0.0815	220	170	70
0.291553	-0.0934	-0.156473	220	170	70
0.107915	-0.263778	-0.14763	220	170	70
0.392052	0.122502	-0.107707	220	170	70
0.257548	-0.146081	0.243594	220	170	70
0.0201	0.269001	0.284392	220	170	70
0.306993	0.011514	0.02262	220	170	70
0.178004	0.226627	0.065178	220	170	70
0.193819	0.046522	0.318469	220	170	70
0.13545	-0.291181	0.166025	220	170	70
0.020785	-0.353758	0.039894	220	170	70
0.25896	0.136581	0.153798	220	170	70
-0.188705	0.055164	0.467736	220	170	70
-0.264091	0.424015	0.020641	220	170	70
-0.263098	0.157582	-0.005427	220	170	70
-0.289511	0.449576	0.097744	220	170	70
-0.375978	0.277319	0.113562	220	170	70
-0.283268	-0.188708	0.164174	220	170	70
-0.284089	-0.409175	0.098201	220	170	70
-0.046679	0.438473	0.081686	220	170	70
0.115801	-0.110849	0.444236	220	170	70
0.161563	0.104458	0.425132	220	170	70
0.188449	-0.045419	0.190905	220	170	70
0.151194	0.030103	0.401705	220	170	70
0.046899	-0.069636	0.439064	220	170	70
0.10133	-0.081114	0.42882	220	170	70
0.158679	-0.105533	0.372901	220	170	70
0.093097	-0.027362	0.42557	220	170	70
0.16054	-0.136815	0.306243	220	170	70
0.168791	0.056026	0.445263	220	170	70
0.195685	-0.112451	0.388566	220	170	70
0.186841	0.091706	0.42077	220	170	70
0.076275	-0.131518	0.270327	220	170	70
0.184712	-0.153063	0.297427	220	170	70
0.187438	-0.111591	0.381218	220	170	70
0.180056	0.056452	0.369139	220	170	70
0.292855	0.021918	0.230524	220	170	70
-0.150834	0.520679	0.062483	220	170	70
0.322668	0.171354	-0.008551	220	170	70
0.01352	0.513495	0.192565	220	170	70
-0.039367	0.347591	0.28898	220	170	70
0.205521	-0.353821	-0.01467	220	170	70
-0.11736	-0.546267	0.109923	220	170	70
0.257746	0.463968	-0.0399	220	170	70
0.156067	-0.142356	0.32984	220	170	70
0.180485	0.002248	0.416785	220	170	70
0.188423	-0.106414	0.410415	220	170	70
0.185723	0.056909	0.426997	220	170	70
0.129052	-0.143115	0.262465	220	170	70
0.187033	-0.132235	0.336411	220	170	70
0.184145	-0.130155	0.310696	220	170	70
0.176926	-0.072737	0.390973	220	170	70
-0.25143	-0.224491	0.19671	220	170	70
-0.424545	-0.044192	0.095489	220	170	70
-0.330636	-0.295227	0.068004	220	170	70
-0.301707	0.351963	0.086674	220	170	70
-0.359614	-0.238345	0.104536	220	170	70
-0.201005	-0.166247	0.265704	220	170	70
-0.39533	-0.162184	0.097639	220	170	70
-0.231197	0.336054	0.129223	220	170	70
0.096235	-0.093316	0.544044	220	170	70
0.305019	0.366983	0.148952	220	170	70
0.492412	-0.062809	-0.357778	220	170	70
0.45857	0.349724	-0.31331	220	170	70
0.325765	0.088541	0.310931	220	170	70
0.381631	-0.314505	-0.103367	220	170	70
-0.038383	-0.574987	0.019021	220	170	70
0.476128	0.267942	-0.029904	220	170	70
-0.151572	-0.015895	0.637904	220	170	70
-0.383735	0.097433	0.32503	220	170	70
-0.069319	-0.33619	0.07682	220	170	70
-0.101384	0.430106	0.180335	220	170	70
-0.339016	-0.109291	0.446645	220	170	70
-0.03866	-0.009853	0.589626	220	170	70
-0.423257	-0.081313	0.376079	220	170	70
-0.031093	0.401928	0.345698	220	170	70
0.423608	0.119881	0.034512	220	170	70
0.096924	0.48513	-0.060775	220	170	70
0.375473	0.140538	-0.283309	220	170	70
0.153658	0.341867	-0.239694	220	170	70
0.193589	0.318694	0.187211	220	170	70
0.252001	-0.214091	-0.255059	220	170	70
-0.020462	-0.443746	-0.103757	220	170	70
0.373483	0.374685	-0.163823	220	170	70
0.115333	-0.367495	0.121881	220	170	70
-0.356023	0.355426	0.156824	220	170	70
0.044494	-0.207807	-0.114284	220	170	70
-0.035303	0.472806	-0.073192	220	170	70
-0.305819	-0.226589	0.333239	220	170	70
0.231855	-0.329462	0.252847	220	170	70
-0.141149	-0.46985	-0.033778	220	170	70
0.048549	0.440923	0.102813	220	170	70
-0.031377	-0.379215	0.245629	220	170	70
-0.252853	0.108969	0.138302	220	170	70
0.020244	-0.457656	-0.112332	220	170	70
-0.020636	0.334747	-0.096735	220	170	70
-0.226149	-0.37192	0.09521	220	170	70
0.173281	-0.281011	0.133908	220	170	70
-0.090063	-0.487237	-0.004655	220	170	70
0.090491	0.22481	0.118263	220	170	70
0.193342	0.196849	0.430846	220	170	70
0.020862	0.310177	0.500212	220	170	70
0.401543	0.002935	0.089093	220	170	70
0.285025	-0.009574	0.116259	220	170	70
0.060907	0.059957	0.583204	220	170	70
0.04364	-0.235895	0.460718	220	170	70
0.05126	-0.329444	0.355254	220	170	70
0.260615	0.102326	0.395336	220	170	70
0.356636	-0.131902	0.220591	220	170	70
0.071454	0.412603	0.160153	220	170	70
0.406392	-0.146952	-0.093832	220	170	70
0.282389	0.384425	0.078208	220	170	70
0.301055	-0.047736	0.35277	220	170	70
0.393961	-0.149931	0.100257	220	170	70
0.156641	-0.489774	0.01667	220	170	70
0.453798	0.195061	0.012021	220	170	70
0.388354	-0.026656	0.188542	220	170	70
0.158016	0.352801	0.249967	220	170	70
0.457279	0.060756	0.028586	220	170	70
0.293864	0.315035	0.086631	220	170	70
0.309806	0.000321	0.282241	220	170	70
0.346922	-0.285633	0.016484	220	170	70
0.103919	-0.414491	0.125904	220	170	70
0.383376	0.246243	0.086542	220	170	70
-0.012532	0.062269	0.529008	220	170	70
0.169975	0.046106	0.420531	220	170	70
0.039875	-0.005311	-0.235644	220	170	70
-0.008638	-0.076373	-0.208785	220	170	70
0.111171	-0.063205	0.51222	220	170	70
-0.067723	-0.121573	0.253057	220	170	70
0.031491	-0.01578	0.00483	220	170	70
0.165758	-0.169459	0.154665	220	170	70
0.179762	0.023585	0.457097	220	170	70
0.206289	0.156691	0.126086	220	170	70
0.145803	0.073204	-0.066427	220	170	70
0.141151	0.137041	0.003454	220	170	70
0.228167	0.060889	0.346669	220	170	70
0.212794	-0.148247	0.124671	220	170	70
0.187357	-0.044551	0.102993	220	170	70
0.23223	0.05354	0.064523	220	170	70
0.005423	-0.134084	0.375429	220	170	70
0.00269	0.110696	0.390207	220	170	70
0.0596	-0.153311	0.360989	220	170	70
-0.039041	0.10797	0.442825	220	170	70
-0.122714	-0.123599	0.311667	220	170	70
-0.010693	-0.166423	0.291319	220	170	70
-0.086898	-0.143975	0.297727	220	170	70
-0.050707	0.101434	0.361342	220	170	70
0.144056	0.065472	0.470479	220	170	70
-0.060235	0.125755	0.246713	220	170	70
0.004398	0.098821	-0.206679	220	170	70
-0.091114	0.024771	-0.163283	220	170	70
0.050743	0.144374	0.394694	220	170	70
-0.143259	-0.11622	0.20631	220	170	70
-0.132047	0.005261	-0.039512	220	170	70
0.215702	0.129202	0.148963	220	170	70
-0.013991	-0.273205	0.268068	220	170	70
-0.152323	0.047504	0.436203	220	170	70
-0.017422	-0.285358	0.090795	220	170	70
0.084789	0.225758	0.124849	220	170	70
-0.138732	-0.224895	0.203374	220	170	70
0.205511	-0.17347	0.311457	220	170	70
-0.112353	-0.35537	0.101767	220	170	70
0.168441	0.090406	0.404725	220	170	70
0.272313	-0.166072	0.326988	220	170	70
0.197083	0.2261	0.360249	220	170	70
0.350816	-0.043627	0.080073	220	170	70
0.278374	0.188665	0.122654	220	170	70
0.232286	-0.081879	0.370056	220	170	70
0.271461	-0.265886	0.220301	220	170	70
0.176224	-0.368795	0.142407	220	170	70
0.280992	-0.054815	0.278843	220	170	70
0.150134	-0.132679	0.310416	220	170	70
0.170672	0.053247	0.427478	220	170	70
0.186468	-0.118502	0.376842	220	170	70
0.182515	0.090108	0.421191	220	170	70
0.118229	-0.130936	0.292928	220	170	70
0.186624	-0.136056	0.308214	220	170	70
0.186021	-0.115835	0.366453	220	170	70
0.192551	0.02005	0.40274	220	170	70
0.171051	-0.121245	0.296831	220	170	70
0.187822	0.104798	0.366794	220	170	70
0.201846	-0.096909	0.371938	220	170	70
0.185329	0.07936	0.439835	220	170	70
0.161354	-0.076299	0.313154	220	170	70
0.195534	-0.123349	0.296062	220	170	70
0.180383	-0.116026	0.403136	220	170	70
0.209081	0.088145	0.338148	220	170	70
0.181254	-0.064135	0.371932	220	170	70
0.206397	0.125319	0.3473	220	170	70
0.201308	0.084093	0.361114	220	170	70
0.173507	0.075757	0.436078	220	170	70
0.186066	0.076635	0.344292	220	170	70
0.175278	-0.122772	0.29443	220	170	70
0.184608	-0.082258	0.403958	220	170	70
0.191534	0.08708	0.372027	220	170	70
0.134152	0.06945	0.557307	220	170	70
-0.039342	0.137212	0.588596	220	170	70
0.249943	-0.086798	0.322381	220	170	70
0.174903	0.029832	0.461441	220	170	70
-0.087182	-0.006413	0.600842	220	170	70
0.178829	-0.064384	0.53489	220	170	70
-0.034772	-0.116951	0.551884	220	170	70
0.135007	0.112519	0.518721	220	170	70
-0.045384	0.340322	0.408584	220	170	70
-0.197834	0.500873	0.252489	220	170	70
-0.021375	0.421544	0.287777	220	170	70
-0.204607	0.449637	0.262266	220	170	70
-0.153411	0.438555	0.369573	220	170	70
-0.1731	-0.32852	0.239748	220	170	70
-0.235243	-0.416518	0.217327	220	170	70
0.106169	0.4511	0.269613	220	170	70
-0.196887	-0.00288	0.214314	220	170	70
-0.210435	0.150722	0.126222	220	170	70
-0.210703	0.042922	0.013558	220	170	70
-0.215985	0.122259	0.046981	220	170	70
-0.210814	0.110638	0.25186	220	170	70
-0.201496	0.096819	0.221021	220	170	70
-0.202352	-0.111235	0.11005	220	170	70
-0.195806	0.158679	0.13704	220	170	70
0.321871	-0.142691	0.169378	220	170	70
0.25444	0.198717	0.075206	220	170	70
0.202037	-0.098051	-0.325075	220	170	70
0.184101	0.075642	-0.257789	220	170	70
0.295155	-0.121439	0.228331	220	170	70
0.339018	-0.07218	0.001483	220	170	70
0.137849	-0.162933	-0.120736	220	170	70
0.272668	0.001218	-0.067426	220	170	70
0.239164	-0.067266	0.334751	220	170	70
-0.025822	0.299887	0.284424	220	170	70
0.2828	-0.052682	0.039991	220	170	70
0.19128	0.168139	0.061273	220	170	70
0.198681	-0.065684	0.454025	220	170	70
0.129178	-0.328998	0.195263	220	170	70
0.04854	-0.371612	0.08649	220	170	70
0.279602	0.094831	0.104438	220	170	70
-0.279959	-0.061151	0.38282	220	170	70
-0.430926	0.154576	0.213397	220	170	70
-0.354949	-0.2482	0.180772	220	170	70
-0.336633	0.283468	0.238899	220	170	70
-0.415301	-0.095634	0.179531	220	170	70
-0.289165	-0.213596	0.356746	220	170	70
-0.363876	-0.332951	0.195179	220	170	70
-0.272422	0.287335	0.386707	220	170	70
-0.102948	-0.354541	0.1517	220	170	70
-0.299141	0.1425	0.004048	220	170	70
-0.065815	-0.374478	-0.116172	220	170	70
-0.099702	0.425521	-0.008826	220	170	70
-0.227087	-0.275879	0.107063	220	170	70
0.198326	-0.200453	0.1078	220	170	70
-0.15138	-0.42194	0.022172	220	170	70
0.120703	0.236876	0.00059	220	170	70
0.241216	-0.240391	0.281762	220	170	70
0.151509	0.265874	0.226306	220	170	70
0.341175	-0.121282	0.081456	220	170	70
0.217292	0.277966	0.141852	220	170	70
0.199228	-0.188009	0.251549	220	170	70
0.319202	-0.127911	0.174156	220	170	70
0.025428	-0.365403	0.144897	220	170	70
0.340678	0.157515	0.168251	220	170	70
-0.118897	-0.312995	0.222691	220	170	70
-0.330346	0.007181	0.107598	220	170	70
-0.058056	-0.399409	-0.057578	220	170	70
-0.105282	0.338969	-0.025711	220	170	70
-0.270563	-0.324029	0.143799	220	170	70
0.087982	-0.236288	0.246207	220	170	70
-0.206052	-0.439114	0.062328	220	170	70
-0.102711	0.236234	0.240445	220	170	70
-0.21989	0.10964	0.565574	220	170	70
-0.309564	0.133314	0.39941	220	170	70
-0.255846	-0.057809	0.542004	220	170	70
-0.255778	0.187198	0.519004	220	170	70
-0.325848	-0.000339	0.396574	220	170	70
-0.215171	-0.100734	0.561213	220	170	70
-0.314987	-0.084506	0.449434	220	170	70
-0.195148	0.231584	0.551734	220	170	70
0.40359	-0.082042	0.039103	220	170	70
0.230768	0.33997	0.067791	220	170	70
0.346764	-0.149959	-0.228573	220	170	70
0.285509	0.175388	-0.175251	220	170	70
0.32607	-0.165165	0.091167	220	170	70
0.310281	-0.299362	-0.103747	220	170	70
0.232583	-0.309783	-0.17182	220	170	70
0.448659	0.024093	-0.130621	220	170	70
0.130591	-0.122004	0.373019	220	170	70
0.188156	0.073106	0.384721	220	170	70
0.188969	-0.064908	0.42461	220	170	70
0.171306	0.033542	0.461398	220	170	70
0.124705	-0.134509	0.328868	220	170	70
0.15834	-0.142082	0.325115	220	170	70
0.177794	-0.072896	0.403799	220	170	70
0.152948	0.033513	0.409015	220	170	70
0.515253	0.153313	0.114775	220	170	70
0.082216	0.515361	0.087807	220	170	70
0.465785	0.025193	-0.426832	220	170	70
0.275343	0.268971	-0.33804	220	170	70
0.340491	0.155919	0.404976	220	170	70
0.387578	-0.327751	-0.280821	220	170	70
0.209097	-0.385765	-0.181001	220	170	70
0.419761	0.209987	-0.32444	220	170	70
0.178575	-0.116129	0.324199	220	170	70
0.189946	0.077667	0.382713	220	170	70
0.190677	-0.064181	0.416858	220	170	70
0.168316	0.063702	0.452464	220	170	70
0.084564	-0.142959	0.285069	220	170	70
0.1785	-0.128906	0.332504	220	170	70
0.169233	-0.104503	0.387223	220	170	70
0.186779	0.041879	0.362489	220	170	70
0.3949	-0.048862	0.106984	220	170	70
0.248352	0.362023	0.124916	220	170	70
0.372454	-0.142791	-0.363597	220	170	70
0.277528	0.101263	-0.354022	220	170	70
0.346942	-0.126048	0.14067	220	170	70
0.335314	-0.269964	-0.171947	220	170	70
0.193438	-0.382702	-0.122685	220	170	70
0.470435	0.067376	-0.069868	220	170	70
-0.227101	-0.108601	0.208094	220	170	70
-0.299855	0.120089	0.114599	220	170	70
-0.278134	-0.138777	0.047739	220	170	70
-0.257782	0.220802	0.065791	220	170	70
-0.309389	-0.048344	0.118862	220	170	70
-0.245335	-0.10657	0.25152	220	170	70
-0.310621	-0.201529	0.090834	220	170	70
-0.207459	0.264568	0.203988	220	170	70
0.337283	-0.015045	0.100553	220	170	70
0.038887	0.384926	0.067581	220	170	70
0.378455	-0.017676	-0.106166	220	170	70
0.197288	0.319151	-0.095529	220	170	70
0.198436	-0.070005	0.200905	220	170	70
0.339022	-0.069936	-0.034828	220	170	70
-0.02686	-0.384966	0.053445	220	170	70
0.343342	0.281941	-0.024598	220	170	70
0.333111	0.274498	0.126933	220	170	70
0.130699	0.56559	-0.08651	220	170	70
0.383501	0.397401	-0.296895	220	170	70
0.221857	0.42272	-0.249403	220	170	70
0.245244	0.407714	0.197536	220	170	70
0.350347	-0.186305	-0.15454	220	170	70
-0.080497	-0.349636	-0.110977	220	170	70
0.455041	0.418307	-0.164293	220	170	70
0.098351	-0.29581	0.341713	220	170	70
-0.109081	0.223443	0.498437	220	170	70
0.236613	-0.264117	0.315358	220	170	70
-0.019772	0.26325	0.539483	220	170	70
-0.095288	-0.17047	0.530987	220	170	70
0.14018	-0.239421	0.452937	220	170	70
0.030743	-0.433744	0.215791	220	170	70
0.196682	0.086081	0.506458	220	170	70
0.473875	-0.203599	-0.007894	220	170	70
0.151783	0.467635	0.028051	220	170	70
0.463093	-0.083004	-0.275262	220	170	70
0.326105	0.34524	-0.133619	220	170	70
0.337874	-0.114716	0.123085	220	170	70
0.364261	-0.456733	-0.154827	220	170	70
0.234649	-0.49167	-0.211411	220	170	70
0.473744	0.089905	-0.227642	220	170	70
0.155381	-0.122037	0.339598	220	170	70
0.181578	0.078423	0.434055	220	170	70
0.188776	-0.080964	0.440608	220	170	70
0.17849	0.032821	0.459628	220	170	70
0.124048	-0.134253	0.333195	220	170	70
0.183949	-0.124658	0.308375	220	170	70
0.187775	-0.107099	0.386389	220	170	70
0.143617	-0.021731	0.39287	220	170	70
0.328932	-0.119958	0.235124	220	170	70
0.277402	0.187267	0.202718	220	170	70
0.253572	-0.163874	-0.179415	220	170	70
0.209202	0.017334	-0.148256	220	170	70
0.288452	-0.209533	0.219665	220	170	70
0.323537	-0.212945	0.134581	220	170	70
0.211026	-0.262503	-0.094642	220	170	70
0.353094	-0.057672	0.122436	220	170	70
0.160041	-0.13141	0.332007	220	170	70
0.171583	0.016588	0.437298	220	170	70
0.190696	-0.097785	0.372883	220	170	70
0.17929	0.056678	0.448507	220	170	70
0.123591	-0.146366	0.329294	220	170	70
0.171608	-0.121668	0.36167	220	170	70
0.194823	-0.089543	0.398544	220	170	70
0.148593	-0.023788	0.405834	220	170	70
0.184614	-0.115718	0.128817	220	170	70
-0.176815	0.467528	0.088057	220	170	70
0.203393	-0.038585	0.094009	220	170	70
-0.156183	0.392922	0.174723	220	170	70
-0.234214	0.245033	0.39662	220	170	70
0.131436	-0.240276	0.179175	220	170	70
-0.083074	-0.464139	0.067428	220	170	70
0.040587	0.381063	0.15091	220	170	70
0.13221	-0.143464	0.321417	220	170	70
0.170967	0.059137	0.443766	220	170	70
0.181199	-0.096601	0.426252	220	170	70
0.180032	0.046746	0.455007	220	170	70
0.148129	-0.11809	0.342142	220	170	70
0.185589	-0.112725	0.329005	220	170	70
0.19489	-0.101934	0.346426	220	170	70
0.174084	0.006399	0.394421	220	170	70
-0.172732	0.176932	0.605748	220	170	70
-0.265505	0.33947	0.443258	220	170	70
-0.261018	0.079685	0.545154	220	170	70
-0.226296	0.243574	0.5291	220	170	70
-0.308948	0.216672	0.501114	220	170	70
-0.241096	0.038597	0.584787	220	170	70
-0.243529	-0.226351	0.455507	220	170	70
-0.155158	0.360895	0.530448	220	170	70
0.175148	-0.144089	0.316598	220	170	70
0.196063	0.086043	0.38097	220	170	70
0.217072	-0.084618	0.360355	220	170	70
0.187721	0.081597	0.450198	220	170	70
0.076991	-0.134729	0.342774	220	170	70
0.185876	-0.116184	0.304357	220	170	70
0.201326	-0.10921	0.356949	220	170	70
0.163599	0.004429	0.41194	220	170	70
0.318848	-0.083778	0.233118	220	170	70
0.26645	0.202279	0.133548	220	170	70
0.191137	-0.137612	-0.246781	220	170	70
0.165544	0.015385	-0.238487	220	170	70
0.289537	-0.172456	0.202813	220	170	70
0.310979	-0.188549	0.113129	220	170	70
0.143275	-0.205873	-0.190923	220	170	70
0.370965	0.008098	0.069413	220	170	70
0.052359	-0.078081	-0.056867	220	170	70
-0.143438	0.25866	-0.086571	220	170	70
0.001715	0.028645	-0.182708	220	170	70
-0.04686	0.222073	-0.163847	220	170	70
-0.108176	0.133542	-0.018702	220	170	70
0.040292	-0.06077	-0.157338	220	170	70
-0.111794	-0.258476	-0.121363	220	170	70
0.096542	0.189169	-0.128623	220	170	70
0.04359	-0.222536	0.128922	220	170	70
-0.203	-0.041276	0.104373	220	170	70
-0.051388	-0.096342	-0.126351	220	170	70
-0.043111	0.106901	-0.109677	220	170	70
-0.155584	-0.239546	0.108172	220	170	70
0.058957	-0.15755	0.106457	220	170	70
-0.099394	-0.107304	-0.051035	220	170	70
-0.038478	0.103079	0.049398	220	170	70
-0.24236	-0.202069	0.218977	220	170	70
-0.352481	0.154316	0.053284	220	170	70
-0.32656	-0.059756	0.061827	220	170	70
-0.278348	0.42137	0.116583	220	170	70
-0.377499	0.171562	0.099722	220	170	70
-0.25914	-0.196364	0.127426	220	170	70
-0.381755	-0.290666	0.112317	220	170	70
-0.131669	0.372907	0.121016	220	170	70
0.303147	-0.435974	0.104535	220	170	70
0.065007	0.458574	-0.017697	220	170	70
0.406637	-0.203379	-0.239514	220	170	70
0.216852	0.534414	-0.12696	220	170	70
0.215553	-0.132769	0.22126	220	170	70
0.483342	-0.111121	-0.146989	220	170	70
0.095785	-0.598312	-0.014606	220	170	70
0.434565	0.37973	0.025631	220	170	70
0.347278	0.059416	0.209243	220	170	70
-0.007327	0.412165	0.217285	220	170	70
0.342669	-0.007279	0.050125	220	170	70
0.017581	0.315147	0.06086	220	170	70
0.030486	0.117268	0.49339	220	170	70
0.269969	-0.312269	0.12754	220	170	70
-0.002647	-0.418774	0.125839	220	170	70
0.311215	0.299884	0.099541	220	170	70
0.382555	0.072047	0.141776	220	170	70
0.063339	0.384756	0.157066	220	170	70
0.336322	0.059598	-0.168205	220	170	70
0.197781	0.219772	-0.175505	220	170	70
0.265758	0.057369	0.25559	220	170	70
0.234796	-0.334518	0.028224	220	170	70
-0.008497	-0.431784	-0.058135	220	170	70
0.368515	0.219672	0.006346	220	170	70
0.18161	-0.107406	0.414543	220	170	70
0.197664	0.112882	0.357612	220	170	70
0.237207	-0.093693	0.334827	220	170	70
0.207984	0.096881	0.406691	220	170	70
0.16437	-0.093347	0.398397	220	170	70
0.19758	-0.115941	0.347954	220	170	70
0.198211	-0.128147	0.373886	220	170	70
0.200918	0.109896	0.250157	220	170	70
0.304555	0.162195	0.280616	220	170	70
-0.086765	0.527455	0.202558	220	170	70
0.409279	0.083602	-0.006067	220	170	70
0.09044	0.443491	0.093023	220	170	70
0.05318	0.217927	0.555092	220	170	70
0.345591	-0.241519	0.170038	220	170	70
-0.014047	-0.457739	0.210847	220	170	70
0.323935	0.409453	0.110598	220	170	70
0.088128	-0.110196	0.337183	220	170	70
0.173625	0.094931	0.398835	220	170	70
0.189278	-0.123936	0.388705	220	170	70
0.181994	0.0497	0.445161	220	170	70
0.107872	-0.129771	0.342215	220	170	70
0.182811	-0.098256	0.298636	220	170	70
0.194921	-0.10457	0.408929	220	170	70
0.155046	-0.071264	0.388303	220	170	70
0.166374	-0.046707	0.411463	220	170	70
0.178528	0.098876	0.430659	220	170	70
0.188849	-0.023908	0.471224	220	170	70
0.179097	0.06237	0.467705	220	170	70
0.134715	0.022175	0.368266	220	170	70
0.18188	-0.124305	0.294221	220	170	70
0.180165	-0.087982	0.395458	220	170	70
0.182416	0.084761	0.393264	220	170	70
0.363336	-0.035045	0.023211	220	170	70
0.012492	0.374662	-0.023276	220	170	70
0.277263	0.013255	-0.334131	220	170	70
0.130572	0.258643	-0.257934	220	170	70
0.229372	0.097488	0.137213	220	170	70
0.242423	-0.205448	-0.119498	220	170	70
0.021347	-0.367166	-0.193773	220	170	70
0.363665	0.196894	-0.06243	220	170	70
0.336822	-0.113944	0.240853	220	170	70
0.239912	0.232422	0.197328	220	170	70
0.26504	-0.170603	-0.366982	220	170	70
0.141764	0.032336	-0.277032	220	170	70
0.264053	-0.185471	0.337356	220	170	70
0.336999	-0.212155	0.061671	220	170	70
0.14341	-0.290678	-0.058382	220	170	70
0.37934	0.048546	0.023023	220	170	70
0.152546	-0.146178	0.320435	220	170	70
0.176649	0.001674	0.412356	220	170	70
0.189556	-0.111297	0.386839	220	170	70
0.171532	0.033753	0.466329	220	170	70
0.12853	-0.12855	0.337366	220	170	70
0.188251	-0.102114	0.342569	220	170	70
0.188275	-0.112832	0.386474	220	170	70
0.167331	-0.078688	0.419035	220	170	70
0.084173	-0.024453	0.432589	220	170	70
0.178665	0.126849	0.357831	220	170	70
0.193995	0.047929	0.383577	220	170	70
0.201871	0.092208	0.420274	220	170	70
0.169204	-0.005159	0.29441	220	170	70
0.167974	-0.129525	0.28658	220	170	70
0.175133	-0.073431	0.438815	220	170	70
0.163272	0.085457	0.362224	220	170	70
0.233388	0.147132	0.254313	220	170	70
-0.084841	0.465942	0.157174	220	170	70
0.135859	0.182363	-0.063029	220	170	70
-0.10397	0.383514	0.087983	220	170	70
-0.089122	0.329383	0.48477	220	170	70
-0.006651	-0.307859	0.242713	220	170	70
-0.132162	-0.389243	0.10549	220	170	70
0.267996	0.293982	0.052795	220	170	70
0.081393	0.260469	0.096985	220	170	70
-0.214852	0.378913	0.012474	220	170	70
-0.180216	0.284461	-0.047468	220	170	70
-0.262284	0.323332	-0.017277	220	170	70
-0.253459	0.323076	0.100454	220	170	70
-0.229083	-0.235069	0.028201	220	170	70
-0.281696	-0.179156	-0.025355	220	170	70
0.0835	0.382935	0.009869	220	170	70
0.274318	-0.087692	0.260097	220	170	70
0.15671	0.22373	0.34043	220	170	70
0.282457	-0.105625	0.264392	220	170	70
0.21889	0.175194	0.288752	220	170	70
0.19415	-0.124503	0.357068	220	170	70
0.205405	-0.290718	0.15705	220	170	70
0.148176	-0.288209	0.201378	220	170	70
0.296427	0.137992	0.193541	220	170	70
0.475884	-0.015074	-0.080086	220	170	70
0.017003	0.473331	0.107123	220	170	70
0.43569	-0.058539	-0.180332	220	170	70
0.238829	0.375596	-0.094588	220	170	70
0.304634	-0.053008	0.1799	220	170	70
0.31341	-0.414894	-0.14693	220	170	70
0.13174	-0.474279	-0.124875	220	170	70
0.461016	0.192803	-0.197197	220	170	70
-0.065249	-0.015072	0.553567	220	170	70
-0.167888	0.186664	0.540736	220	170	70
0.030191	-0.050189	0.525152	220	170	70
-0.089997	0.210376	0.532959	220	170	70
-0.116563	0.063572	0.59876	220	170	70
0.165267	-0.042977	0.53326	220	170	70
-0.139441	-0.13533	0.579794	220	170	70
0.087624	0.238364	0.442714	220	170	70
-0.221133	-0.284343	0.34321	220	170	70
-0.420657	0.081888	0.147883	220	170	70
-0.193777	-0.467445	0.063123	220	170	70
-0.276936	0.343227	0.249269	220	170	70
-0.361655	-0.242428	0.307152	220	170	70
-0.184702	-0.150776	0.519473	220	170	70
-0.160811	-0.43889	0.187718	220	170	70
-0.278575	0.143526	0.416263	220	170	70
-0.196232	0.107985	0.513332	220	170	70
-0.198095	0.179514	0.461473	220	170	70
-0.223753	0.032386	0.479521	220	170	70
-0.209707	0.140559	0.486305	220	170	70
-0.242139	0.078413	0.464211	220	170	70
-0.209476	-0.092193	0.512019	220	170	70
-0.248307	0.05234	0.49917	220	170	70
-0.160838	0.246255	0.506556	220	170	70
0.372228	-0.265847	0.116724	220	170	70
0.009746	0.402948	0.102126	220	170	70
0.422415	-0.224247	-0.291919	220	170	70
0.29477	0.296377	-0.244104	220	170	70
0.149934	-0.351504	0.271474	220	170	70
0.485595	-0.329586	-0.076131	220	170	70
0.163657	-0.483991	-0.156044	220	170	70
0.43159	0.121108	-0.211806	220	170	70
0.214137	-0.170658	0.214518	220	170	70
0.15167	0.121121	0.39533	220	170	70
0.25181	-0.167065	0.155483	220	170	70
0.211871	0.145628	0.256083	220	170	70
0.145267	-0.141475	0.295444	220	170	70
0.230012	-0.146035	0.280754	220	170	70
0.011231	-0.293887	0.161855	220	170	70
0.240142	0.006938	0.318297	220	170	70
0.210445	-0.104885	0.407938	220	170	70
-0.223956	0.338528	0.260528	220	170	70
-0.127285	-0.164303	0.430694	220	170	70
-0.204366	0.312087	0.443831	220	170	70
-0.258946	0.158173	0.477752	220	170	70
-0.096474	-0.280164	0.391162	220	170	70
-0.133357	-0.36755	0.195943	220	170	70
0.019783	0.339643	0.328566	220	170	70
0.16543	-0.156398	0.325837	220	170	70
0.200323	0.093419	0.383854	220	170	70
0.234946	-0.102908	0.323074	220	170	70
0.186229	-0.015458	0.445205	220	170	70
0.105591	-0.146175	0.354857	220	170	70
0.196287	-0.112982	0.344136	220	170	70
0.198961	-0.142806	0.322257	220	170	70
0.162004	-0.05158	0.427325	220	170	70
0.321877	0.209092	0.168234	220	170	70
-0.028395	0.429822	0.156757	220	170	70
0.245051	0.181399	-0.03629	220	170	70
-0.020507	0.300995	-0.044061	220	170	70
0.040928	0.283779	0.401214	220	170	70
0.148099	-0.383577	0.052938	220	170	70
-0.138132	-0.350583	0.038725	220	170	70
0.318517	0.321503	0.083256	220	170	70
-0.202336	-0.310448	0.143149	220	170	70
-0.356006	-0.045494	0.018407	220	170	70
-0.174792	-0.395437	0.045194	220	170	70
-0.230661	0.36246	0.080458	220	170	70
-0.350379	-0.215501	0.050864	220	170	70
-0.204555	-0.209723	0.204413	220	170	70
-0.234929	-0.412269	0.005022	220	170	70
-0.246176	0.207531	0.2591	220	170	70
-0.132468	-0.212228	0.078024	220	170	70
-0.210549	-0.02415	0.055945	220	170	70
-0.135266	-0.192786	0.005554	220	170	70
-0.153141	0.197935	0.020605	220	170	70
-0.184061	-0.183142	0.057093	220	170	70
-0.10822	-0.104094	0.067048	220	170	70
-0.182518	-0.191183	0.027112	220	170	70
-0.084145	0.175046	0.068012	220	170	70
-0.195276	-0.073838	0.093654	220	170	70
-0.292947	0.084148	0.066788	220	170	70
-0.239466	-0.048825	-0.045068	220	170	70
-0.275684	0.114611	-0.056986	220	170	70
-0.264448	0.016327	0.076601	220	170	70
-0.212316	-0.127859	0.085414	220	170	70
-0.299538	-0.192207	0.026763	220	170	70
-0.196206	0.232735	0.080423	220	170	70
-0.098185	-0.158034	0.297718	220	170	70
-0.139022	-0.062709	0.254971	220	170	70
-0.139608	-0.191005	0.117503	220	170	70
-0.145031	0.099968	0.143214	220	170	70
-0.135494	-0.129414	0.290009	220	170	70
-0.108787	-0.141692	0.277574	220	170	70
-0.112588	-0.135436	0.14425	220	170	70
-0.058081	0.043474	0.233012	220	170	70
0.090234	0.158299	0.567088	220	170	70
0.025615	0.21401	0.556288	220	170	70
0.3279	0.069753	0.04307	220	170	70
0.264783	0.078979	0.068286	220	170	70
0.068401	0.039253	0.608073	220	170	70
0.019982	-0.250428	0.480007	220	170	70
0.18043	-0.241955	0.108405	220	170	70
0.29763	0.021361	0.371636	220	170	70
0.150589	-0.119343	0.377996	220	170	70
0.186706	0.040244	0.43052	220	170	70
0.204162	-0.109213	0.35258	220	170	70
0.180324	0.062359	0.455437	220	170	70
0.159669	-0.107889	0.334315	220	170	70
0.179717	-0.110756	0.349436	220	170	70
0.185931	-0.093545	0.39618	220	170	70
0.191393	0.032841	0.378173	220	170	70
0.168108	-0.120362	0.365435	220	170	70
0.189185	0.089772	0.397744	220	170	70
0.211178	-0.092461	0.363091	220	170	70
0.176233	0.086486	0.456575	220	170	70
0.156545	-0.09574	0.395297	220	170	70
0.184467	-0.130184	0.303955	220	170	70
0.204095	-0.099741	0.373312	220	170	70
0.199124	0.065712	0.325497	220	170	70
0.057227	0.045856	-0.045729	220	170	70
-0.051614	0.197599	-0.098673	220	170	70
0.026929	0.047586	-0.213322	220	170	70
-0.047067	0.1329	-0.16822	220	170	70
0.012196	0.206441	-0.010615	220	170	70
0.011745	-0.004247	-0.10551	220	170	70
-0.121182	-0.13854	-0.123167	220	170	70
0.075562	0.118627	-0.153188	220	170	70
-0.232895	-0.086538	0.139622	220	170	70
-0.332028	0.195308	0.016102	220	170	70
-0.30864	-0.126854	-0.003324	220	170	70
-0.288443	0.250311	0.012228	220	170	70
-0.363636	0.01767	0.083981	220	170	70
-0.26877	-0.070118	0.152681	220	170	70
-0.294386	-0.271752	0.016723	220	170	70
-0.248946	0.292276	0.152192	220	170	70
0.272643	0.268222	0.159739	220	170	70
0.115895	0.520783	-0.042517	220	170	70
0.093203	0.48277	-0.152057	220	170	70
0.00055	0.522223	-0.069567	220	170	70
0.147981	0.518619	0.097773	220	170	70
0.194203	-0.020898	-0.032958	220	170	70
-0.174156	-0.363079	-0.002856	220	170	70
0.391944	0.334295	-0.090785	220	170	70
0.232684	0.256332	0.246155	220	170	70
-0.047684	0.402152	0.223853	220	170	70
0.309378	-0.0025	-0.139213	220	170	70
0.141975	0.15619	-0.11166	220	170	70
0.165677	0.129163	0.531097	220	170	70
0.148254	-0.364321	0.185434	220	170	70
-0.087012	-0.401232	0.03272	220	170	70
0.332867	0.233398	0.069675	220	170	70
0.026045	-0.386745	0.207378	220	170	70
-0.320725	-0.116921	0.173755	220	170	70
0.00078	-0.382572	-0.136392	220	170	70
-0.079518	0.376683	-0.072375	220	170	70
-0.27633	-0.357	0.187091	220	170	70
0.055291	-0.335342	0.166228	220	170	70
-0.169174	-0.446158	0.004423	220	170	70
0.088492	0.280622	0.160888	220	170	70
0.409363	-0.189131	0.042985	220	170	70
0.107944	0.425504	0.136276	220	170	70
0.461842	-0.238876	-0.155565	220	170	70
0.341992	0.314562	-0.059936	220	170	70
0.294818	-0.186511	0.247079	220	170	70
0.43106	-0.275407	-0.091367	220	170	70
0.199702	-0.537793	0.015702	220	170	70
0.442522	0.155082	-0.073757	220	170	70
0.31134	-0.220866	0.083145	220	170	70
-0.056313	0.373583	-0.133028	220	170	70
0.262126	-0.095892	-0.392702	220	170	70
0.195816	0.418035	-0.218516	220	170	70
0.263108	-0.034694	0.129489	220	170	70
0.306596	-0.355816	-0.249672	220	170	70
-0.08132	-0.514366	-0.064454	220	170	70
0.362759	0.170267	-0.407517	220	170	70
-0.275236	0.100685	0.454163	220	170	70
-0.443792	0.053798	0.229362	220	170	70
-0.361805	-0.148198	0.318512	220	170	70
-0.346446	0.171902	0.318357	220	170	70
-0.393285	-0.110784	0.255886	220	170	70
-0.26779	-0.151006	0.464477	220	170	70
-0.453434	-0.08802	0.249751	220	170	70
-0.246534	0.289732	0.462369	220	170	70
0.392438	0.074189	0.060224	220	170	70
-0.066484	0.511675	0.100667	220	170	70
0.377622	-0.024504	-0.16943	220	170	70
0.243912	0.396672	-0.019772	220	170	70
0.232392	0.177681	0.336548	220	170	70
0.270747	-0.39697	-0.07274	220	170	70
0.020512	-0.571445	-0.034534	220	170	70
0.367128	0.234129	-0.189856	220	170	70
0.116473	-0.127287	0.362417	220	170	70
0.180765	0.061134	0.424709	220	170	70
0.189588	-0.103111	0.42902	220	170	70
0.185502	0.032941	0.438506	220	170	70
0.154324	-0.116545	0.297234	220	170	70
0.193022	-0.112876	0.385114	220	170	70
0.193812	-0.12535	0.382437	220	170	70
0.163461	-0.071725	0.418259	220	170	70
0.200037	0.034564	0.477753	220	170	70
0.146848	0.386813	0.38385	220	170	70
0.508276	0.021289	-0.057274	220	170	70
0.342404	0.233721	-0.094514	220	170	70
0.273511	0.025969	0.430219	220	170	70
0.212355	-0.466873	0.168991	220	170	70
0.074419	-0.540753	0.065514	220	170	70
0.42269	0.130984	0.131323	220	170	70
0.151887	-0.131555	0.355857	220	170	70
0.193419	0.086145	0.406327	220	170	70
0.199657	-0.102681	0.403541	220	170	70
0.197634	0.06235	0.431471	220	170	70
0.128709	-0.128976	0.293166	220	170	70
0.187641	-0.119507	0.279593	220	170	70
0.192418	-0.102388	0.389494	220	170	70
0.19357	0.057936	0.341319	220	170	70
-0.211793	-0.18411	0.462243	220	170	70
-0.363083	0.253005	0.079167	220	170	70
-0.224574	-0.268573	-0.038294	220	170	70
-0.274392	0.384358	0.118243	220	170	70
-0.368689	0.074295	0.268468	220	170	70
-0.244955	0.000908	0.551115	220	170	70
-0.239152	-0.407807	0.154089	220	170	70
-0.192275	0.293891	0.174116	220	170	70
0.330418	0.13994	0.294529	220	170	70
0.041229	0.387982	0.296542	220	170	70
0.441117	0.073585	-0.042083	220	170	70
0.292741	0.281885	-0.05702	220	170	70
0.236834	0.018877	0.483083	220	170	70
0.279344	-0.363679	0.067466	220	170	70
-0.027415	-0.380426	0.162358	220	170	70
0.377944	0.324271	0.131779	220	170	70
0.147564	-0.13311	0.385761	220	170	70
0.179693	0.013725	0.433932	220	170	70
0.191896	-0.099459	0.412142	220	170	70
0.1817	0.03164	0.462576	220	170	70
0.161336	-0.09788	0.347211	220	170	70
0.181936	-0.111999	0.391677	220	170	70
0.205071	-0.068499	0.357179	220	170	70
0.169398	-0.03921	0.392552	220	170	70
0.4057	0.039174	0.275212	220	170	70
-0.001098	0.418567	0.357997	220	170	70
0.47905	0.00142	0.063149	220	170	70
0.249001	0.406203	0.071184	220	170	70
0.11657	-0.162552	0.538794	220	170	70
0.33975	-0.494263	-0.00463	220	170	70
0.027896	-0.473023	0.25067	220	170	70
0.355468	0.389826	0.040772	220	170	70
0.174022	-0.388071	0.151499	220	170	70
0.205054	0.20682	0.138256	220	170	70
0.16576	-0.307779	-0.107851	220	170	70
0.183497	0.212947	-0.056526	220	170	70
0.049605	-0.363069	0.119471	220	170	70
0.290661	-0.287907	0.108558	220	170	70
0.115948	-0.423102	-0.087687	220	170	70
0.32185	-0.012646	0.100786	220	170	70
0.380243	-0.066014	0.068555	220	170	70
0.254925	0.287232	0.107711	220	170	70
0.417683	-0.03954	-0.043307	220	170	70
0.285358	0.245225	0.004345	220	170	70
0.305536	-0.063054	0.121391	220	170	70
0.312017	-0.170636	-0.073642	220	170	70
0.181706	-0.340157	0.03691	220	170	70
0.418144	0.161499	-0.012315	220	170	70
0.2908	-0.166393	0.314338	220	170	70
0.180942	0.267124	0.279543	220	170	70
0.363262	-0.017131	0.02031	220	170	70
0.242034	0.245241	0.068641	220	170	70
0.261042	-0.03103	0.307155	220	170	70
0.222278	-0.321188	0.102662	220	170	70
0.04524	-0.397882	0.080862	220	170	70
0.361704	0.082108	0.10764	220	170	70
0.447809	-0.102295	0.110107	220	170	70
