0.146616	0.018045	0.259153	220	170	70
0.124392	-0.119734	0.186805	220	170	70
-0.10497	-0.21041	0.12633	220	170	70
-0.218609	-0.256008	0.235333	220	170	70
0.083838	-0.301577	0.271924	220	170	70
0.209422	-0.347285	-0.385606	220	170	70
0.140893	0.018061	-0.352705	220	170	70
0.10081	-0.02791	-0.374756	220	170	70
-0.007501	-0.255862	0.365135	220	170	70
0.072196	-0.523991	-0.00406	220	170	70
0.026792	-0.392955	0.019841	220	170	70
0.14089	-0.118902	0.394301	220	170	70
0.015399	-0.073384	-0.595656	220	170	70
0.319801	0.248617	0.570053	220	170	70
-0.161606	-0.210192	0.180674	220	170	70
0.00969	-0.347337	-0.09889	220	170	70
0.095269	-0.438585	-0.133541	220	170	70
0.197848	-0.027474	0.191421	220	170	70
0.060372	-0.029192	-0.366248	220	170	70
0.10919	-0.060756	-0.024876	220	170	70
0.141355	-0.11909	0.193982	220	170	70
0.018795	-0.046361	-0.090907	220	170	70
0.11257	0.015231	-0.207999	220	170	70
0.215131	-0.16466	-0.310738	220	170	70
-0.304865	-0.347358	-0.005524	220	170	70
-0.190113	-0.34724	0.324875	220	170	70
-0.043078	-0.071467	0.052237	220	170	70
0.123778	-0.164583	0.418025	220	170	70
-0.024622	-0.255865	0.372433	220	170	70
0.458569	-0.073127	-0.016438	220	170	70
0.089735	-0.11909	-0.750873	220	170	70
0.061026	-0.255955	-0.029442	220	170	70
0.151584	0.022024	0.100031	220	170	70
0.032436	-0.21018	0.425403	220	170	70
-0.003815	-0.061346	-0.338506	220	170	70
0.334943	-0.073257	-0.23033	220	170	70
0.129553	0.063574	0.3175	220	170	70
0.135226	-0.301634	0.295609	220	170	70
0.026884	-0.073432	-0.798433	220	170	70
-0.065656	-0.07408	-0.497378	220	170	70
-0.051115	-0.084743	-0.198214	220	170	70
-0.093043	-0.301671	-0.086087	220	170	70
0.112349	-0.073233	0.414406	220	170	70
0.332504	0.202383	0.515261	220	170	70
0.163815	0.109184	-0.044173	220	170	70
0.02111	-0.347346	-0.234045	220	170	70
0.111876	-0.018715	-0.167214	220	170	70
-0.007438	-0.073374	-0.681508	220	170	70
0.129463	-0.118874	0.36693	220	170	70
-0.087759	-0.210405	0.166704	220	170	70
0.36313	-0.067356	0.58858	220	170	70
0.044092	-0.073359	-0.801933	220	170	70
0.118145	-0.02749	0.294091	220	170	70
0.066689	-0.481952	0.037153	220	170	70
0.124611	-0.210374	0.080963	220	170	70
0.101007	-0.301675	-0.210297	220	170	70
0.108524	-0.021832	-0.189424	220	170	70
-0.0074	-0.256077	-0.237711	220	170	70
0.338364	-0.161614	0.469632	220	170	70
0.163824	0.109164	-0.002181	220	170	70
-0.098859	-0.255775	0.177082	220	170	70
0.116543	-0.062143	-0.021147	220	170	70
0.289139	-0.164543	0.142311	220	170	70
0.066498	-0.392811	-0.398589	220	170	70
-0.047451	-0.255876	0.461894	220	170	70
0.112336	-0.073129	0.29954	220	170	70
0.129717	-0.018154	-0.088678	220	170	70
-0.14447	-0.25588	0.173342	220	170	70
-0.190114	-0.347237	0.28835	220	170	70
-0.046557	-0.121938	0.34421	220	170	70
0.026785	-0.255787	0.102286	220	170	70
0.072426	-0.347243	0.222605	220	170	70
0.083848	-0.346741	0.310435	220	170	70
0.118016	-0.210118	0.228192	220	170	70
-0.053336	-0.210121	0.284987	220	170	70
0.186637	0.200503	0.335664	220	170	70
-0.270366	-0.255772	0.164188	220	170	70
-0.178659	-0.301666	-0.018536	220	170	70
0.123753	-0.118869	0.381549	220	170	70
0.061066	-0.256038	-0.241355	220	170	70
0.360925	-0.161495	0.431654	220	170	70
0.345901	-0.11851	0.410975	220	170	70
0.180894	-0.347277	0.027162	220	170	70
-0.030345	-0.437888	0.082222	220	170	70
0.198077	0.200439	0.439695	220	170	70
0.277868	-0.073253	-0.149969	220	170	70
0.003802	-0.028075	-0.583036	220	170	70
0.044161	-0.073297	-0.867566	220	170	70
0.163819	0.109176	-0.027743	220	170	70
0.10834	-0.021591	-0.189609	220	170	70
-0.185034	-0.438476	0.044038	220	170	70
0.266471	-0.027645	0.222542	220	170	70
-0.01319	-0.073448	-0.637698	220	170	70
0.106599	-0.027727	-0.376491	220	170	70
-0.025161	-0.066139	0.016165	220	170	70
0.106686	-0.347281	0.2664	220	170	70
0.087585	-0.06875	0.214994	220	170	70
-0.018821	-0.2104	-0.456852	220	170	70
-0.04179	-0.255763	0.273891	220	170	70
0.038302	-0.073441	-0.783822	220	170	70
0.384314	0.06457	0.365268	220	170	70
0.073206	-0.074634	-0.23535	220	170	70
0.061068	-0.118887	0.376505	220	170	70
0.118097	-0.301616	0.251788	220	170	70
0.129502	-0.255935	0.270072	220	170	70
-0.118003	-0.16597	0.172918	220	170	70
0.015425	-0.25607	-0.504365	220	170	70
0.123775	0.063711	-0.336262	220	170	70
-0.081036	-0.170524	0.180179	220	170	70
0.026693	-0.529322	-0.191708	220	170	70
0.043874	-0.255892	0.454576	220	170	70
0.118429	0.015332	-0.194998	220	170	70
0.118017	-0.073147	0.323153	220	170	70
0.255086	0.017953	0.067268	220	170	70
-0.04944	-0.520686	0.110041	220	170	70
-0.061903	-0.072675	0.398786	220	170	70
0.072241	-0.438451	-0.367455	220	170	70
0.158107	0.109182	-0.047825	220	170	70
0.129508	0.023608	0.179391	220	170	70
0.026821	-0.073399	-0.597497	220	170	70
0.19825	0.200722	-0.314388	220	170	70
0.169542	0.154799	0.248009	220	170	70
0.08925	-0.028263	-0.369449	220	170	70
0.140935	0.109289	-0.407557	220	170	70
0.043933	-0.07338	-0.539035	220	170	70
0.078126	-0.301568	0.250018	220	170	70
0.088828	-0.107059	-0.092346	220	170	70
-0.144405	-0.256017	-0.166449	220	170	70
-0.047447	-0.255881	0.425373	220	170	70
0.192346	0.200499	0.293661	220	170	70
0.255085	0.154936	-0.078829	220	170	70
0.038493	-0.073281	-0.925974	220	170	70
0.130439	-0.020989	-0.105047	220	170	70
0.382783	-0.163735	0.316519	220	170	70
0.169662	-0.210338	0.041932	220	170	70
0.131015	-0.023055	-0.11296	220	170	70
0.312156	0.109282	0.030754	220	170	70
0.112359	-0.255888	0.218975	220	170	70
0.009703	-0.301702	-0.287014	220	170	70
0.026726	-0.255733	0.136986	220	170	70
0.124218	-0.210239	0.153734	220	170	70
0.141204	-0.16453	0.195634	220	170	70
-0.264612	-0.255802	0.15687	220	170	70
0.090295	-0.210254	0.134013	220	170	70
0.083851	-0.438578	-0.193803	220	170	70
0.038192	-0.438576	-0.182841	220	170	70
0.003768	-0.028127	-0.544697	220	170	70
0.043948	-0.256046	-0.261451	220	170	70
0.021111	-0.073403	-0.659611	220	170	70
0.123766	-0.063758	-0.003788	220	170	70
-0.013223	-0.43787	0.091361	220	170	70
0.140889	-0.073241	0.355951	220	170	70
0.123814	0.017976	0.375976	220	170	70
0.203472	0.337341	0.55109	220	170	70
0.009698	-0.347351	-0.394766	220	170	70
0.026804	-0.392977	-0.071486	220	170	70
0.146643	0.154941	-0.36191	220	170	70
-0.332745	-0.256041	-0.345506	220	170	70
0.110543	0.032657	-0.026231	220	170	70
0.277944	0.154868	0.08183	220	170	70
0.065468	0.019834	0.374493	220	170	70
0.526727	0.202111	0.291755	220	170	70
-0.327909	-0.347377	0.014641	220	170	70
0.091861	-0.021257	-0.232322	220	170	70
0.175228	0.154842	0.304638	220	170	70
0.02107	-0.438579	-0.233987	220	170	70
0.186462	-0.438489	-0.308939	220	170	70
0.043899	-0.43858	-0.275999	220	170	70
0.02675	-0.255882	0.423543	220	170	70
0.135575	-0.16453	0.193909	220	170	70
0.301728	0.109751	-0.367191	220	170	70
0.163828	0.154815	0.284547	220	170	70
-0.115954	-0.392826	0.114891	220	170	70
0.083855	-0.438588	-0.093364	220	170	70
0.038269	-0.073477	-0.776581	220	170	70
0.021069	-0.438577	-0.215724	220	170	70
0.083885	-0.301673	-0.195681	220	170	70
0.374951	-0.02752	-0.21747	220	170	70
0.140892	-0.073249	0.392468	220	170	70
-0.281369	-0.256055	-0.223132	220	170	70
0.187338	-0.118754	0.095322	220	170	70
0.072462	-0.210339	-0.358217	220	170	70
0.061223	-0.07339	-0.814746	220	170	70
-0.133018	-0.301626	0.401549	220	170	70
0.300719	-0.073308	0.35587	220	170	70
0.083847	-0.347258	0.273731	220	170	70
-0.309911	-0.256048	-0.349157	220	170	70
0.169606	-0.026484	0.024104	220	170	70
-0.22459	-0.210195	0.414354	220	170	70
-0.133014	-0.255967	-0.098834	220	170	70
-0.018951	-0.210126	0.370672	220	170	70
0.129468	-0.210201	0.255522	220	170	70
0.10845	-0.164413	0.083453	220	170	70
0.043965	-0.073462	-0.725421	220	170	70
0.380579	0.200743	-0.135333	220	170	70
-0.252838	-0.301708	-0.214007	220	170	70
0.106662	-0.210254	0.449064	220	170	70
0.038556	-0.073243	-0.977023	220	170	70
-0.333371	-0.301722	-0.131578	220	170	70
0.089582	-0.210337	-0.354565	220	170	70
0.060931	-0.072835	0.342664	220	170	70
0.062106	-0.208972	-0.066005	220	170	70
0.123821	0.154926	-0.462366	220	170	70
-0.230504	-0.392918	0.104038	220	170	70
-0.047385	-0.347331	-0.117151	220	170	70
0.089407	0.018249	0.349026	220	170	70
-0.207342	-0.210276	0.343109	220	170	70
0.118108	0.017978	0.363196	220	170	70
0.11236	-0.255892	0.153227	220	170	70
-0.001727	-0.347332	-0.069662	220	170	70
0.003983	-0.073388	-0.679691	220	170	70
0.026807	-0.073366	-0.537191	220	170	70
0.146639	0.016471	-0.205207	220	170	70
0.124846	-0.165081	0.145287	220	170	70
-0.104596	-0.255822	0.115002	220	170	70
0.095471	-0.059036	-0.018815	220	170	70
0.084178	-0.073339	-0.946106	220	170	70
-0.138752	-0.255905	0.233597	220	170	70
-0.247253	-0.255938	0.213441	220	170	70
-0.013145	-0.07339	-0.780178	220	170	70
0.136698	-0.021794	-0.084403	220	170	70
-0.018936	-0.437444	0.1116	220	170	70
-0.110229	-0.301534	0.133164	220	170	70
0.152016	0.29189	0.59428	220	170	70
0.140895	-0.118914	0.419858	220	170	70
0.158102	0.063539	0.269975	220	170	70
0.106705	-0.16468	-0.376486	220	170	70
-0.139418	-0.165014	0.190334	220	170	70
0.015262	-0.21006	0.332358	220	170	70
0.306031	0.337564	0.165808	220	170	70
0.069291	-0.069263	0.232635	220	170	70
0.502276	-0.072027	-0.015782	220	170	70
0.112397	-0.072865	0.271541	220	170	70
0.118105	0.017981	0.385111	220	170	70
0.05617	-0.072431	-0.250393	220	170	70
-0.113319	-0.167664	0.128111	220	170	70
0.119177	-0.165321	0.139836	220	170	70
-0.207181	-0.25604	-0.038653	220	170	70
-0.316499	-0.301156	0.235556	220	170	70
0.215153	0.154896	-0.058757	220	170	70
0.055302	-0.34724	0.187909	220	170	70
0.192304	0.017958	0.399668	220	170	70
0.135203	-0.164606	0.394271	220	170	70
0.032406	-0.164452	0.399899	220	170	70
-0.173025	-0.210288	0.290169	220	170	70
0.021504	-0.151242	-0.100994	220	170	70
0.072405	-0.210215	0.381549	220	170	70
0.232208	0.018061	-0.140854	220	170	70
0.152311	-0.073258	0.352284	220	170	70
0.19237	0.200438	0.44152	220	170	70
0.063345	-0.070186	0.247244	220	170	70
0.140871	-0.164519	0.261014	220	170	70
-0.055665	-0.158518	-0.256752	220	170	70
-0.018826	-0.256049	-0.352751	220	170	70
0.056185	-0.210501	0.139607	220	170	70
0.158019	-0.073265	0.401578	220	170	70
0.112697	-0.164493	0.214015	220	170	70
0.033204	-0.210849	0.088868	220	170	70
-0.057259	-0.170689	0.14831	220	170	70
0.123743	-0.210166	0.248242	220	170	70
0.072188	-0.526764	-0.074114	220	170	70
0.146639	0.109293	-0.403905	220	170	70
-0.024832	-0.073973	-0.557573	220	170	70
0.02686	-0.073461	-0.791177	220	170	70
0.055306	-0.347249	0.169636	220	170	70
0.135201	-0.164602	0.41071	220	170	70
0.30642	0.200659	-0.095218	220	170	70
0.306421	0.246315	-0.097048	220	170	70
0.015318	-0.437436	0.129859	220	170	70
0.104959	0.072227	0.168323	220	170	70
0.123268	0.065562	-0.049904	220	170	70
0.119111	-0.021229	-0.154096	220	170	70
0.129508	0.109315	-0.319868	220	170	70
0.368081	0.109528	0.189607	220	170	70
0.072453	-0.164659	-0.365504	220	170	70
-0.178974	-0.119566	-0.515486	220	170	70
0.066644	-0.255761	0.155163	220	170	70
-0.002653	-0.028734	-0.44095	220	170	70
0.083837	-0.301576	0.228091	220	170	70
0.232187	-0.073212	0.189745	220	170	70
0.108171	-0.16497	0.119523	220	170	70
0.038231	-0.347345	-0.040455	220	170	70
0.118043	-0.073202	0.355986	220	170	70
0.078002	-0.438486	-0.350979	220	170	70
0.083785	-0.118825	0.394382	220	170	70
0.078083	-0.484142	-0.137138	220	170	70
-0.230477	-0.392919	0.087588	220	170	70
0.158117	0.10916	-0.007661	220	170	70
0.135209	-0.073906	-0.221391	220	170	70
-0.002831	-0.521448	0.093428	220	170	70
0.118098	-0.301617	0.273709	220	170	70
0.123351	0.017043	-0.280142	220	170	70
-0.053174	-0.438263	0.060178	220	170	70
-0.368902	-0.392975	-0.055914	220	170	70
-0.036177	-0.073785	-0.621418	220	170	70
0.118783	-0.020642	-0.152145	220	170	70
0.12403	0.018718	0.24347	220	170	70
0.306809	0.200905	-0.275936	220	170	70
0.038248	-0.073437	-0.696171	220	170	70
0.158219	0.018418	0.222835	220	170	70
-0.086117	-0.169938	0.189662	220	170	70
0.16944	-0.07328	0.39974	220	170	70
0.129474	-0.210214	0.264642	220	170	70
0.118098	-0.301617	0.273709	220	170	70
-0.076013	-0.301471	0.204445	220	170	70
0.129742	-0.164495	0.208416	220	170	70
0.232227	-0.073263	0.029013	220	170	70
-0.053066	-0.256059	-0.192033	220	170	70
0.061264	-0.073359	-0.862171	220	170	70
-0.150765	-0.166353	-0.269499	220	170	70
0.095342	-0.119136	-0.61584	220	170	70
0.049676	-0.027824	-0.840535	220	170	70
-0.287671	-0.301289	0.257405	220	170	70
-0.254204	-0.346658	0.409224	220	170	70
-0.059193	-0.210787	0.190646	220	170	70
0.129463	-0.073216	0.354148	220	170	70
0.163741	0.01803	0.25365	220	170	70
0.032549	-0.073464	-0.758312	220	170	70
0.043698	-0.435534	0.208559	220	170	70
0.027654	-0.208581	-0.02388	220	170	70
0.07817	-0.210343	-0.367351	220	170	70
0.140923	0.109314	-0.318049	220	170	70
0.192305	-0.347296	-0.199309	220	170	70
0.163717	-0.164559	0.237229	220	170	70
-0.195801	-0.301621	0.248153	220	170	70
0.30602	0.337566	0.158502	220	170	70
0.348595	0.384883	0.331137	220	170	70
0.198085	0.246077	0.434185	220	170	70
0.077861	-0.392781	-0.380364	220	170	70
0.152415	0.109158	0.262649	220	170	70
0.060981	-0.484145	-0.120673	220	170	70
0.145016	0.02355	0.042498	220	170	70
0.072401	-0.210206	0.372421	220	170	70
0.439787	0.110456	0.273845	220	170	70
0.220824	-0.027666	0.308374	220	170	70
0.560616	0.156674	0.246261	220	170	70
0.032435	-0.210177	0.418098	220	170	70
0.249362	0.154969	-0.188376	220	170	70
0.003856	-0.255712	0.144268	220	170	70
0.106709	-0.164695	-0.246837	220	170	70
-0.172958	-0.347313	-0.07698	220	170	70
-0.144406	-0.30168	-0.095245	220	170	70
0.187802	-0.073159	0.075737	220	170	70
0.00392	-0.347199	0.248217	220	170	70
0.026817	-0.073389	-0.577394	220	170	70
0.209452	0.154885	-0.051456	220	170	70
-0.041789	-0.165032	-0.427761	220	170	70
-0.021891	-0.167704	0.273941	220	170	70
0.066949	-0.073391	-0.836654	220	170	70
0.459029	0.10955	0.059934	220	170	70
0.009703	-0.34736	-0.451387	220	170	70
0.123798	0.109321	-0.307081	220	170	70
0.003819	-0.209999	0.297703	220	170	70
0.043888	-0.347242	0.164164	220	170	70
0.502675	0.156011	0.113092	220	170	70
-0.156315	-0.164343	0.332308	220	170	70
0.17524	0.10916	0.196886	220	170	70
-0.018826	-0.256049	-0.35823	220	170	70
-0.281911	-0.255685	0.204406	220	170	70
0.18093	0.200502	0.321055	220	170	70
0.061019	-0.255939	-0.007515	220	170	70
0.009703	-0.301701	-0.378327	220	170	70
-0.363149	-0.392972	-0.079689	220	170	70
0.118002	-0.438507	-0.316225	220	170	70
0.083838	-0.301578	0.246352	220	170	70
-0.127313	-0.301623	0.379641	220	170	70
0.07817	-0.210341	-0.363699	220	170	70
0.05529	-0.255892	0.414402	220	170	70
-0.207219	-0.347276	0.114819	220	170	70
-0.041654	-0.256055	-0.175596	220	170	70
-0.093295	-0.122035	-0.066342	220	170	70
0.009632	-0.301557	0.463697	220	170	70
0.129519	0.017988	0.301121	220	170	70
0.055286	-0.301555	0.452748	220	170	70
-0.380636	-0.39268	0.14677	220	170	70
-0.098884	-0.437556	0.065779	220	170	70
0.312146	0.017979	0.246257	220	170	70
0.428068	-0.072276	0.371825	220	170	70
0.389713	0.064496	0.314034	220	170	70
0.118497	-0.074542	-0.223055	220	170	70
0.385279	-0.073887	0.03315	220	170	70
0.07806	-0.164447	0.343271	220	170	70
-0.013208	-0.255873	0.465547	220	170	70
0.095292	-0.164682	-0.383792	220	170	70
0.124777	-0.021326	-0.130339	220	170	70
0.129471	-0.073235	0.405265	220	170	70
-0.351611	-0.392971	-0.092562	220	170	70
0.032091	-0.095085	-0.153043	220	170	70
0.020959	-0.2557	0.164355	220	170	70
0.009978	-0.21128	0.20194	220	170	70
0.101001	-0.256006	-0.363706	220	170	70
0.163768	-0.301645	0.089219	220	170	70
0.061342	-0.073304	-0.944247	220	170	70
0.043854	-0.21019	0.445478	220	170	70
0.095299	-0.347332	-0.204817	220	170	70
0.220809	-0.438541	-0.288754	220	170	70
0.144231	-0.025383	-0.077627	220	170	70
0.030514	-0.116725	0.05942	220	170	70
0.123784	-0.255913	0.16051	220	170	70
0.015335	-0.255885	0.460059	220	170	70
0.14089	0.018068	-0.345395	220	170	70
-0.040702	-0.169682	0.139585	220	170	70
0.140927	-0.255959	0.299272	220	170	70
0.277936	0.063567	0.127498	220	170	70
0.323574	0.246398	-0.230319	220	170	70
0.266491	-0.164646	-0.197494	220	170	70
0.05535	-0.347337	-0.241345	220	170	70
0.451994	0.292668	0.052711	220	170	70
0.072508	-0.119125	-0.621307	220	170	70
0.061336	-0.073308	-0.940605	220	170	70
-0.118496	-0.167028	0.130328	220	170	70
0.049597	-0.43856	-0.036734	220	170	70
0.380406	-0.210058	-0.041494	220	170	70
0.106687	-0.346669	0.306792	220	170	70
0.106621	-0.073184	0.354181	220	170	70
0.083424	0.01846	0.374773	220	170	70
0.078112	-0.438555	-0.310716	220	170	70
0.106709	-0.164695	-0.248667	220	170	70
0.043948	-0.256046	-0.263274	220	170	70
0.180846	-0.073265	-0.2066	220	170	70
0.215157	-0.392863	-0.126143	220	170	70
-0.059667	-0.074337	-0.521365	220	170	70
-0.155878	-0.34722	0.22444	220	170	70
0.111186	0.031435	-0.048318	220	170	70
-0.178682	-0.347275	0.041768	220	170	70
0.112341	-0.027635	-0.370969	220	170	70
0.072465	-0.347327	0.016168	220	170	70
-0.018822	-0.210399	-0.455028	220	170	70
0.100951	-0.210246	0.438117	220	170	70
0.10019	-0.116225	0.122578	220	170	70
0.198077	0.200439	0.439695	220	170	70
0.095268	-0.346689	0.308621	220	170	70
-0.116206	-0.211206	-0.179611	220	170	70
-0.030866	-0.16495	0.427869	220	170	70
0.090117	-0.191998	0.123483	220	170	70
-0.282753	0.08524	0.138415	220	170	70
-0.060836	-0.210469	-0.017188	220	170	70
-0.206609	0.19491	-0.016728	220	170	70
-0.255584	-0.127353	0.251996	220	170	70
-0.06126	-0.189259	0.190519	220	170	70
-0.097325	-0.275898	0.021656	220	170	70
-0.144757	0.213051	0.111451	220	170	70
-0.127119	0.189	0.507136	220	170	70
-0.259995	0.304258	0.135355	220	170	70
-0.211216	0.097442	-0.473652	220	170	70
-0.375942	0.025806	-0.438998	220	170	70
-0.32838	0.167654	0.275203	220	170	70
-0.294717	-0.2598	0.154168	220	170	70
-0.420464	-0.068804	-0.168445	220	170	70
-0.010039	0.362484	0.052822	220	170	70
-0.32253	-0.170195	0.290255	220	170	70
-0.375231	0.041582	-0.276516	220	170	70
-0.24327	-0.137843	-0.473204	220	170	70
-0.202496	0.391647	-0.166861	220	170	70
-0.442243	0.001378	0.049222	220	170	70
-0.298418	-0.03106	0.232244	220	170	70
-0.471974	-0.150939	-0.062695	220	170	70
-0.092849	0.278301	-0.233896	220	170	70
-0.187629	-0.18562	0.020105	220	170	70
-0.277982	0.130822	-0.288837	220	170	70
-0.209693	-0.069844	-0.480545	220	170	70
-0.119551	0.20575	-0.385214	220	170	70
-0.353932	-0.016754	-0.041858	220	170	70
-0.161243	-0.217826	-0.038565	220	170	70
-0.236855	-0.133428	-0.369364	220	170	70
-0.044909	0.174019	-0.282285	220	170	70
-0.297019	-0.153792	0.051268	220	170	70
-0.329731	0.140053	-0.239553	220	170	70
-0.285418	-0.028512	-0.429873	220	170	70
-0.144183	0.321632	-0.339432	220	170	70
-0.40299	0.072266	-0.072132	220	170	70
-0.305595	-0.042544	-0.048854	220	170	70
-0.356891	-0.178739	-0.307418	220	170	70
-0.03504	0.344267	-0.189023	220	170	70
0.098767	-0.127374	0.226169	220	170	70
0.096087	0.074505	0.115732	220	170	70
0.002285	-0.055676	0.063101	220	170	70
0.047252	0.098025	0.081504	220	170	70
0.041133	0.130008	0.305115	220	170	70
0.01643	0.081711	0.311151	220	170	70
0.098023	-0.112461	0.096635	220	170	70
0.071496	0.135641	0.24393	220	170	70
0.091869	-0.06677	0.239209	220	170	70
0.087292	0.041793	0.114979	220	170	70
-0.103468	-0.030298	0.072961	220	170	70
0.033141	0.002494	0.076734	220	170	70
-0.027253	0.140878	0.291646	220	170	70
-0.041082	0.107089	0.297228	220	170	70
0.010546	-0.048348	0.179696	220	170	70
0.002941	0.11413	0.239322	220	170	70
-0.158702	0.213335	0.435309	220	170	70
-0.225027	0.365787	0.001454	220	170	70
-0.175311	0.120939	-0.415107	220	170	70
-0.264331	0.179917	-0.34331	220	170	70
-0.286911	0.255897	0.217811	220	170	70
-0.35117	0.006396	0.084309	220	170	70
-0.438105	-0.100878	-0.123783	220	170	70
-0.026284	0.39138	-0.023979	220	170	70
0.083001	-0.030489	0.269663	220	170	70
0.043179	0.008918	0.119435	220	170	70
0.032638	-0.075027	0.05026	220	170	70
0.034519	-0.010113	0.063585	220	170	70
-0.041746	0.094221	0.322075	220	170	70
-0.047519	0.065555	0.3366	220	170	70
-0.051365	-0.068261	0.168576	220	170	70
-0.01713	0.136308	0.294879	220	170	70
-0.129882	-0.263287	0.181293	220	170	70
-0.382344	0.161027	-0.124118	220	170	70
-0.215121	-0.176452	-0.383965	220	170	70
-0.193406	0.227635	-0.305285	220	170	70
-0.376047	-0.172989	0.009265	220	170	70
-0.190593	-0.26761	0.010624	220	170	70
-0.242356	-0.300626	-0.130404	220	170	70
-0.031574	0.279667	-0.196666	220	170	70
0.093384	-0.025868	0.199043	220	170	70
0.054316	0.031495	0.12644	220	170	70
0.046766	-0.035817	0.069271	220	170	70
0.06342	-0.026933	0.082963	220	170	70
-0.017521	0.123041	0.312633	220	170	70
-0.048285	0.09827	0.316529	220	170	70
0.02468	-0.11788	0.130366	220	170	70
0.026834	0.112152	0.220101	220	170	70
0.159905	0.191067	0.426575	220	170	70
0.03017	0.340386	0.005498	220	170	70
0.038035	0.068971	-0.486944	220	170	70
0.008041	0.138253	-0.38986	220	170	70
0.080732	0.265593	0.306393	220	170	70
0.07882	0.14809	0.016129	220	170	70
-0.195007	-0.144259	-0.133906	220	170	70
0.17905	0.275282	-0.100727	220	170	70
0.083301	-0.043784	0.219168	220	170	70
0.082791	0.023263	0.136333	220	170	70
-0.062707	-0.039207	0.076477	220	170	70
0.044105	0.019023	0.072997	220	170	70
0.003074	0.130808	0.314748	220	170	70
-0.054288	0.071542	0.339583	220	170	70
-0.016584	-0.063869	0.157707	220	170	70
-0.008457	0.144116	0.270095	220	170	70
-0.103049	-0.167349	0.132936	220	170	70
-0.313271	0.201297	0.017996	220	170	70
-0.150882	-0.036993	-0.189781	220	170	70
-0.18087	0.217431	-0.144044	220	170	70
-0.323039	0.121747	0.129611	220	170	70
-0.250256	-0.153569	0.09172	220	170	70
-0.174767	-0.340317	-0.035552	220	170	70
-0.070669	0.292041	0.020888	220	170	70
-0.264931	0.081703	0.453257	220	170	70
-0.316978	0.216064	0.175939	220	170	70
-0.346366	0.044022	-0.131366	220	170	70
-0.361856	0.216854	-0.05253	220	170	70
-0.302078	0.194683	0.285969	220	170	70
-0.300707	0.096077	0.375147	220	170	70
-0.344096	-0.212677	0.192285	220	170	70
-0.13593	0.271454	0.329838	220	170	70
0.014062	0.02109	0.596059	220	170	70
0.141102	0.194457	0.033715	220	170	70
-0.05264	0.05253	-0.657043	220	170	70
-0.041986	0.008385	-0.609361	220	170	70
0.112964	0.200121	0.4093	220	170	70
-0.236199	0.012993	0.330189	220	170	70
-0.070638	-0.065672	-0.406492	220	170	70
0.22016	0.040586	-0.01641	220	170	70
-0.2069	0.114136	0.458153	220	170	70
-0.212724	0.296128	0.100401	220	170	70
-0.185555	0.086428	-0.14278	220	170	70
-0.203983	0.291183	-0.049066	220	170	70
-0.270255	0.225988	0.200908	220	170	70
-0.283012	-0.054578	0.344733	220	170	70
-0.286995	-0.268209	0.095643	220	170	70
-0.006628	0.319126	0.111524	220	170	70
0.170629	-0.045556	0.078981	220	170	70
0.137321	0.183023	-0.058667	220	170	70
-0.01227	0.017329	-0.362996	220	170	70
-0.012025	0.051412	-0.316261	220	170	70
0.140685	0.187595	0.074117	220	170	70
0.131638	0.112952	-0.039209	220	170	70
-0.016918	-0.061903	-0.177052	220	170	70
0.131194	0.135257	-0.120463	220	170	70
0.092746	-0.07009	0.334305	220	170	70
0.084987	0.033923	0.209772	220	170	70
-0.027611	-0.034638	0.094759	220	170	70
0.083475	0.07656	0.095616	220	170	70
0.044254	0.125555	0.346997	220	170	70
0.031107	0.018896	0.365211	220	170	70
0.072457	-0.030389	0.293175	220	170	70
0.035968	0.154886	0.329175	220	170	70
-0.240894	0.122037	0.465622	220	170	70
-0.282589	0.270106	0.158961	220	170	70
-0.335651	0.146112	0.143263	220	170	70
-0.192219	0.31476	0.293234	220	170	70
-0.275294	0.240546	0.281205	220	170	70
-0.29266	-0.028338	0.440286	220	170	70
-0.299448	-0.262113	0.20476	220	170	70
-0.063633	0.316081	0.286113	220	170	70
0.086999	-0.031705	0.343828	220	170	70
0.094274	0.078338	0.220623	220	170	70
0.011029	0.068332	0.112357	220	170	70
0.057269	0.037961	0.122426	220	170	70
0.032677	0.144268	0.335188	220	170	70
-0.033235	0.014418	0.385019	220	170	70
0.051761	-0.081769	0.275968	220	170	70
0.067575	0.13189	0.300974	220	170	70
-0.352769	0.039742	0.117154	220	170	70
-0.407488	0.081334	-0.184354	220	170	70
-0.369757	-0.101318	-0.294154	220	170	70
-0.277707	0.35369	-0.196796	220	170	70
-0.462433	-0.004965	-0.043798	220	170	70
-0.362693	0.043903	0.057198	220	170	70
-0.467255	-0.080651	-0.153489	220	170	70
-0.094708	0.389044	-0.087727	220	170	70
-0.162054	0.077653	0.601003	220	170	70
0.056771	0.375345	0.07542	220	170	70
0.009034	0.154739	-0.548012	220	170	70
0.093214	0.271418	-0.409424	220	170	70
-0.052441	0.283469	0.358296	220	170	70
-0.242178	0.077727	0.062161	220	170	70
-0.371267	-0.307246	-0.038075	220	170	70
0.146053	0.369839	-0.077266	220	170	70
-0.336392	0.08346	0.281355	220	170	70
-0.451642	0.15552	-0.106542	220	170	70
-0.382142	-0.061452	-0.504355	220	170	70
-0.310801	0.372792	-0.358537	220	170	70
-0.437742	-0.057693	0.151725	220	170	70
-0.405137	-0.011147	0.163443	220	170	70
-0.502599	-0.025157	-0.234109	220	170	70
-0.114752	0.458639	-0.135826	220	170	70
-0.067424	0.199687	0.484858	220	170	70
-0.084374	0.31262	-0.056346	220	170	70
-0.067765	0.055523	-0.419317	220	170	70
-0.009834	0.160787	-0.294051	220	170	70
-0.167765	0.248144	0.316534	220	170	70
-0.262295	0.095143	0.164678	220	170	70
-0.218245	-0.165957	-0.146261	220	170	70
0.08591	0.273764	-0.123099	220	170	70
-0.30656	-0.135285	0.356133	220	170	70
-0.383075	0.197076	0.048159	220	170	70
-0.284855	-0.043925	-0.301786	220	170	70
-0.190347	0.351953	-0.162635	220	170	70
-0.415206	0.052552	0.165211	220	170	70
-0.300157	-0.129351	0.403907	220	170	70
-0.412383	-0.202889	-0.146756	220	170	70
-0.057068	0.368697	0.084615	220	170	70
-0.235947	-0.205644	0.309584	220	170	70
-0.306278	0.150715	-0.163407	220	170	70
-0.186392	-0.123515	-0.448997	220	170	70
-0.120415	0.257076	-0.320622	220	170	70
-0.382688	0.017458	-0.017256	220	170	70
-0.269157	-0.056572	0.014991	220	170	70
-0.28579	-0.188154	-0.244223	220	170	70
-0.041141	0.245183	-0.189092	220	170	70
0.107912	0.280425	0.309121	220	170	70
0.031254	0.317616	0.264301	220	170	70
0.118001	0.198186	-0.309179	220	170	70
-0.085816	0.065369	-0.3329	220	170	70
0.017454	0.259167	0.420752	220	170	70
-0.084071	-0.231376	0.262028	220	170	70
-0.274539	-0.17605	-0.039109	220	170	70
0.23138	0.278906	0.096752	220	170	70
-0.254768	-0.020896	0.339153	220	170	70
-0.331613	0.411461	-0.19942	220	170	70
-0.199344	-0.004489	-0.42791	220	170	70
-0.082834	0.521904	-0.060397	220	170	70
-0.214838	0.297293	0.233354	220	170	70
-0.240319	0.105457	0.046634	220	170	70
-0.258985	-0.375629	-0.094136	220	170	70
0.044854	0.454455	-0.214031	220	170	70
0.106306	0.181476	0.486053	220	170	70
0.115377	0.295607	-0.009669	220	170	70
0.005814	0.099139	-0.467471	220	170	70
-0.015979	0.093639	-0.374632	220	170	70
0.065246	0.265552	0.277646	220	170	70
-0.054688	0.142225	0.043568	220	170	70
-0.281501	-0.008731	-0.084243	220	170	70
0.190951	0.243825	-0.082391	220	170	70
0.154078	-0.066956	0.349971	220	170	70
0.161233	0.145616	0.081252	220	170	70
0.028995	-0.003089	-0.362573	220	170	70
-0.008778	-0.03404	-0.339193	220	170	70
0.162373	0.102328	0.304674	220	170	70
0.131748	-0.014525	0.035737	220	170	70
0.076667	-0.156548	-0.093197	220	170	70
0.198327	0.045143	0.025717	220	170	70
-0.153372	0.029749	0.423659	220	170	70
-0.182969	0.179573	-0.268593	220	170	70
-0.084217	-0.013905	-0.5686	220	170	70
-0.064305	0.218387	-0.419421	220	170	70
-0.257966	0.190059	0.121874	220	170	70
-0.054632	-0.180401	-0.11835	220	170	70
-0.269787	-0.138655	-0.190836	220	170	70
0.004703	0.188801	-0.436798	220	170	70
-0.160858	-0.00256	0.397449	220	170	70
-0.236509	0.130377	0.235063	220	170	70
-0.256388	-0.017712	0.13811	220	170	70
-0.248115	0.129237	0.107888	220	170	70
-0.248321	0.061432	0.319945	220	170	70
-0.215888	-0.085242	0.382184	220	170	70
-0.252478	-0.083771	0.252972	220	170	70
-0.207086	0.202169	0.285549	220	170	70
-0.294934	-0.139036	0.256577	220	170	70
-0.431454	0.051286	-0.137255	220	170	70
-0.316987	-0.054388	-0.470007	220	170	70
-0.190604	0.197222	-0.386406	220	170	70
-0.420521	-0.097449	0.016982	220	170	70
-0.337822	0.0041	0.163674	220	170	70
-0.317266	-0.123797	-0.36534	220	170	70
-0.092857	0.33588	-0.046355	220	170	70
0.016997	-0.154858	0.15647	220	170	70
-0.263909	0.187388	0.07108	220	170	70
-0.21381	-0.147288	-0.004543	220	170	70
-0.224193	0.230034	0.011911	220	170	70
-0.256071	0.133748	0.228225	220	170	70
-0.145837	-0.104534	0.272729	220	170	70
-0.164338	-0.278771	0.034563	220	170	70
-0.123697	0.238142	0.180859	220	170	70
0.099621	-0.214195	0.315411	220	170	70
-0.187113	0.191504	0.03968	220	170	70
-0.043951	-0.018242	-0.301526	220	170	70
-0.110097	0.075137	-0.267205	220	170	70
-0.224188	0.163517	0.279953	220	170	70
0.00438	-0.147952	0.062181	220	170	70
-0.0111	-0.26853	-0.079532	220	170	70
-0.116796	0.190749	0.055131	220	170	70
0.102357	-0.062847	0.348019	220	170	70
0.092917	0.002802	0.179861	220	170	70
0.008722	-0.02962	0.066941	220	170	70
0.074168	0.119008	0.082961	220	170	70
0.059969	0.080848	0.351937	220	170	70
0.086446	-0.044006	0.3341	220	170	70
0.060019	-0.071256	0.274415	220	170	70
0.114294	0.133347	0.307634	220	170	70
0.081403	-0.046596	0.361987	220	170	70
0.095351	0.050036	0.177912	220	170	70
-0.015103	0.010652	0.09356	220	170	70
0.078244	0.041407	0.090904	220	170	70
0.030413	0.119076	0.366474	220	170	70
0.033559	0.027785	0.378413	220	170	70
0.071035	-0.053533	0.280667	220	170	70
0.070775	0.145778	0.364861	220	170	70
0.090484	-0.058777	0.238848	220	170	70
0.100411	0.125062	0.108871	220	170	70
-0.033333	0.068152	0.083037	220	170	70
0.028219	0.003991	0.077089	220	170	70
-0.045735	0.170576	0.302285	220	170	70
0.003859	0.081538	0.2488	220	170	70
0.041577	-0.079009	0.160119	220	170	70
0.046851	0.163854	0.25089	220	170	70
-0.06698	0.08196	0.407514	220	170	70
-0.246192	0.13464	0.317884	220	170	70
-0.222708	-0.05414	0.065126	220	170	70
-0.226617	0.151381	0.058272	220	170	70
-0.241617	0.094191	0.386586	220	170	70
-0.180229	-0.061775	0.410609	220	170	70
-0.261727	-0.074038	0.286693	220	170	70
-0.121028	0.214572	0.29021	220	170	70
-0.069051	0.251476	0.392573	220	170	70
-0.160248	0.301996	0.223237	220	170	70
-0.072859	0.306555	0.162977	220	170	70
-0.147676	0.292142	0.216464	220	170	70
-0.102395	0.286411	0.327031	220	170	70
-0.206317	-0.188644	0.435764	220	170	70
-0.214264	-0.298873	0.207004	220	170	70
-0.010816	0.313572	0.216489	220	170	70
0.078028	-0.060047	0.327638	220	170	70
0.088413	0.005638	0.135385	220	170	70
-0.018122	-0.024113	0.074919	220	170	70
0.03371	-0.007914	0.098725	220	170	70
0.02154	0.115882	0.31799	220	170	70
-0.024965	0.121486	0.330035	220	170	70
0.077407	-0.026157	0.221071	220	170	70
-0.021587	0.132241	0.307901	220	170	70
0.085994	0.097149	0.405706	220	170	70
0.017441	0.20685	0.192911	220	170	70
0.003192	0.17659	0.054803	220	170	70
0.053367	0.184137	0.072195	220	170	70
-0.078197	0.197029	0.398825	220	170	70
-0.091424	-0.014469	0.354701	220	170	70
-0.146082	-0.13511	0.36694	220	170	70
0.112645	0.205163	0.156281	220	170	70
0.115107	-0.142284	0.126621	220	170	70
-0.247955	0.181506	-0.077042	220	170	70
-0.067333	-0.041399	-0.490167	220	170	70
-0.053541	0.062891	-0.462046	220	170	70
-0.089864	-0.044968	0.210771	220	170	70
0.085654	-0.230247	-0.019911	220	170	70
-0.117157	-0.127225	-0.296959	220	170	70
0.059796	0.090149	-0.186763	220	170	70
-0.276352	-0.113172	0.361427	220	170	70
-0.3744	0.172502	0.081886	220	170	70
-0.313399	-0.214075	-0.037986	220	170	70
-0.292647	0.268542	0.030396	220	170	70
-0.37911	0.043124	0.097735	220	170	70
-0.279056	-0.2024	0.336898	220	170	70
-0.253125	-0.345776	0.067686	220	170	70
-0.16006	0.286817	0.208566	220	170	70
-0.245025	-0.079434	0.299688	220	170	70
-0.258193	0.079828	-0.195675	220	170	70
-0.150716	-0.035935	-0.462913	220	170	70
-0.083727	0.150771	-0.388307	220	170	70
-0.291763	0.109827	0.005254	220	170	70
-0.255091	0.054462	0.01023	220	170	70
-0.223601	-0.114393	-0.271453	220	170	70
-0.019539	0.143994	-0.220191	220	170	70
-0.008858	0.042024	0.533258	220	170	70
0.026327	0.201215	0.465852	220	170	70
0.130368	0.143553	0.144386	220	170	70
0.108897	0.200549	0.274663	220	170	70
-0.093065	0.124896	0.5047	220	170	70
-0.115904	0.010048	0.504265	220	170	70
-0.235172	-0.070368	0.483375	220	170	70
0.140587	0.216899	0.414973	220	170	70
-0.246242	-0.243228	0.071008	220	170	70
-0.392178	0.117223	-0.169805	220	170	70
-0.267478	-0.233834	-0.300516	220	170	70
-0.236128	0.285488	-0.237092	220	170	70
-0.433542	-0.179975	-0.014813	220	170	70
-0.286285	-0.200565	0.036129	220	170	70
-0.311383	-0.33715	-0.179995	220	170	70
-0.158862	0.329944	-0.032033	220	170	70
-0.321154	0.095865	0.153044	220	170	70
-0.405363	0.153686	-0.049626	220	170	70
-0.400566	0.010966	-0.2224	220	170	70
-0.337738	0.205348	-0.192574	220	170	70
-0.440625	0.056918	0.020191	220	170	70
-0.3749	-0.07548	0.140047	220	170	70
-0.44573	-0.114751	-0.123608	220	170	70
-0.214814	0.326463	0.087999	220	170	70
0.124917	0.232723	0.370178	220	170	70
0.042681	0.310807	-0.072999	220	170	70
-0.036479	0.142365	-0.495663	220	170	70
-0.049632	0.141195	-0.413291	220	170	70
-0.044448	0.302483	0.173388	220	170	70
-0.232062	0.100585	-0.014457	220	170	70
-0.223464	0.00548	-0.235102	220	170	70
0.162984	0.274003	-0.176085	220	170	70
0.089111	-0.062931	0.241613	220	170	70
0.051842	0.121214	0.124958	220	170	70
0.027913	-0.059284	0.069808	220	170	70
0.059733	0.026238	0.089353	220	170	70
-0.067925	0.135048	0.359809	220	170	70
-0.066037	0.105359	0.321501	220	170	70
0.054451	-0.094096	0.170513	220	170	70
0.036512	0.139221	0.211061	220	170	70
0.224325	0.229113	0.185556	220	170	70
-0.168287	0.339836	0.013623	220	170	70
-0.078137	0.131065	-0.583292	220	170	70
-0.166173	0.130274	-0.47396	220	170	70
-0.091437	0.262163	0.357325	220	170	70
-0.197126	-0.236494	0.015199	220	170	70
-0.168736	-0.081084	-0.320355	220	170	70
0.113038	0.25268	-0.180359	220	170	70
0.047907	-0.049012	0.397703	220	170	70
-0.21904	0.082103	0.251863	220	170	70
-0.150412	-0.097247	0.070475	220	170	70
-0.118735	0.123558	0.068763	220	170	70
-0.203853	0.045851	0.342896	220	170	70
-0.074955	-0.069805	0.393028	220	170	70
-0.223151	-0.156441	0.286976	220	170	70
0.01221	0.188023	0.297865	220	170	70
-0.171006	0.061743	0.495761	220	170	70
-0.056429	0.220766	0.013524	220	170	70
-0.089305	0.016216	-0.527509	220	170	70
-0.059402	0.010848	-0.477708	220	170	70
-0.187206	0.159609	0.40939	220	170	70
-0.265223	0.033321	0.145996	220	170	70
-0.14798	-0.106242	-0.205279	220	170	70
0.172458	0.16504	-0.016588	220	170	70
-0.20096	0.011354	0.432767	220	170	70
-0.273265	0.146002	0.253149	220	170	70
-0.265263	-0.02632	0.380327	220	170	70
-0.227804	0.218541	0.291586	220	170	70
-0.279421	0.058729	0.305165	220	170	70
-0.226213	-0.069547	0.439048	220	170	70
-0.295642	-0.159965	0.336273	220	170	70
-0.108743	0.257362	0.330897	220	170	70
0.063529	0.10009	0.426964	220	170	70
-0.020042	0.212934	0.218069	220	170	70
0.13077	0.14072	0.059811	220	170	70
0.019058	0.215735	0.075091	220	170	70
-0.101873	0.184976	0.428081	220	170	70
0.005144	0.101154	0.385304	220	170	70
-0.212918	-0.142912	0.419239	220	170	70
0.094272	0.239019	0.194974	220	170	70
0.04795	0.281658	0.313577	220	170	70
-0.005017	0.483936	-0.090029	220	170	70
0.054856	0.3499	-0.3986	220	170	70
0.001468	0.374991	-0.285114	220	170	70
0.000195	0.404088	0.181929	220	170	70
0.003441	0.190266	-0.011237	220	170	70
-0.251984	-0.236092	-0.156412	220	170	70
0.15208	0.401416	-0.124144	220	170	70
0.106425	-0.085529	0.300735	220	170	70
-0.115582	0.0912	0.231279	220	170	70
0.008558	-0.057969	0.065465	220	170	70
-0.079379	0.079804	0.083014	220	170	70
-0.1351	0.132873	0.338138	220	170	70
0.029604	-0.073832	0.378585	220	170	70
-0.112563	-0.195144	0.220091	220	170	70
0.074535	0.139471	0.284078	220	170	70
-0.295149	-0.24059	0.042888	220	170	70
-0.430833	0.122532	-0.278917	220	170	70
-0.32891	-0.152282	-0.493842	220	170	70
-0.209405	0.406352	-0.313774	220	170	70
-0.455379	-0.148988	-0.073024	220	170	70
-0.359175	-0.145184	0.026968	220	170	70
-0.436043	-0.205218	-0.295209	220	170	70
-0.136159	0.376297	-0.219366	220	170	70
0.093737	-0.040734	0.268455	220	170	70
0.085873	0.047532	0.134563	220	170	70
-0.018726	-0.021653	0.069572	220	170	70
0.068145	0.028525	0.087569	220	170	70
0.02996	0.097973	0.344758	220	170	70
-0.013264	0.082565	0.313816	220	170	70
0.044026	-0.054888	0.184263	220	170	70
0.029756	0.122622	0.182563	220	170	70
-0.216888	-0.146841	0.505213	220	170	70
-0.338686	0.055294	0.004199	220	170	70
-0.184226	-0.097447	-0.546291	220	170	70
-0.133119	0.035994	-0.525143	220	170	70
-0.329647	-0.170439	0.207777	220	170	70
-0.308285	-0.069544	0.324337	220	170	70
-0.181809	-0.148108	-0.346259	220	170	70
-0.204917	0.183591	0.012465	220	170	70
0.10674	-0.056579	0.185641	220	170	70
0.043867	0.017961	0.139537	220	170	70
0.036465	-0.066184	0.055805	220	170	70
0.074079	0.005281	0.081207	220	170	70
0.016221	0.107804	0.324276	220	170	70
0.011399	0.090288	0.298942	220	170	70
0.017392	-0.116763	0.19538	220	170	70
0.047699	0.109263	0.186681	220	170	70
0.124483	-0.127878	0.040784	220	170	70
-0.195711	0.265382	-0.024254	220	170	70
-0.014003	0.017804	-0.117085	220	170	70
-0.11298	0.226071	-0.093991	220	170	70
-0.214161	0.219357	0.084634	220	170	70
0.10809	-0.148148	0.016472	220	170	70
-0.072465	-0.282155	-0.045914	220	170	70
0.137183	0.262711	-0.032693	220	170	70
0.081928	-0.055139	0.201729	220	170	70
0.063447	0.023663	0.126787	220	170	70
-0.085077	-0.028656	0.074197	220	170	70
0.040136	-0.005063	0.087863	220	170	70
0.016502	0.108456	0.286995	220	170	70
-0.021675	0.094	0.306178	220	170	70
0.051116	-0.052542	0.133404	220	170	70
-0.052696	0.126548	0.27391	220	170	70
0.130255	0.055336	0.479442	220	170	70
-0.143054	0.243707	0.371272	220	170	70
-0.064291	0.151039	0.312027	220	170	70
-0.047334	0.20372	0.412006	220	170	70
-0.15685	0.139122	0.51934	220	170	70
-0.052326	-0.068866	0.522998	220	170	70
-0.098541	-0.247223	0.401139	220	170	70
0.014534	0.235958	0.446808	220	170	70
0.09382	-0.037713	0.215408	220	170	70
0.060118	0.0549	0.131398	220	170	70
-0.012501	0.038783	0.074975	220	170	70
0.058331	0.005226	0.093435	220	170	70
-0.022554	0.1395	0.321689	220	170	70
-0.039152	0.095552	0.307028	220	170	70
0.038124	-0.091207	0.150979	220	170	70
-0.076125	0.13379	0.266988	220	170	70
-0.064291	0.091401	0.576857	220	170	70
-0.074376	0.227634	0.133209	220	170	70
-0.110571	0.082583	-0.629881	220	170	70
-0.110726	0.029999	-0.605619	220	170	70
-0.152154	0.200283	0.467234	220	170	70
-0.275356	0.069708	0.334595	220	170	70
-0.164586	-0.028238	-0.265622	220	170	70
0.221088	0.21346	0.036697	220	170	70
0.133131	-0.175431	-0.003654	220	170	70
-0.063718	0.152257	-0.165706	220	170	70
-0.014488	-0.00695	-0.340007	220	170	70
-0.036397	0.131377	-0.273097	220	170	70
-0.01166	0.20949	-0.027145	220	170	70
0.086483	-0.001257	-0.154802	220	170	70
-0.111324	-0.229849	-0.164953	220	170	70
0.086356	0.11521	-0.213563	220	170	70
-0.294991	0.035237	0.104206	220	170	70
-0.394684	0.092516	-0.13249	220	170	70
-0.298984	-0.024453	-0.36245	220	170	70
-0.240109	0.168356	-0.305646	220	170	70
-0.395788	0.044525	-0.038714	220	170	70
-0.343138	-0.003865	0.017534	220	170	70
-0.364316	-0.089185	-0.232417	220	170	70
-0.110461	0.315262	-0.115588	220	170	70
-0.220799	-0.298847	0.053881	220	170	70
-0.417998	0.065865	-0.236922	220	170	70
-0.349452	-0.157104	-0.386811	220	170	70
-0.245139	0.389908	-0.24172	220	170	70
-0.462738	-0.009658	-0.08597	220	170	70
-0.338374	-0.213821	0.010089	220	170	70
-0.355307	-0.304784	-0.237628	220	170	70
-0.137829	0.344028	-0.158186	220	170	70
-0.239974	-0.237866	0.320666	220	170	70
-0.314717	0.266213	-0.138737	220	170	70
-0.261042	0.035739	-0.497045	220	170	70
-0.118677	0.370585	-0.360049	220	170	70
-0.362295	0.157107	0.119012	220	170	70
-0.261516	0.113715	0.111775	220	170	70
-0.30045	-0.195465	-0.336802	220	170	70
0.01173	0.390436	0.08897	220	170	70
-0.18907	0.158622	0.497905	220	170	70
-0.208759	0.356327	0.198389	220	170	70
-0.363083	0.151804	-0.098715	220	170	70
-0.375293	0.252715	0.002396	220	170	70
-0.32413	0.278039	0.319177	220	170	70
-0.237128	-0.245737	0.305301	220	170	70
-0.305845	-0.31457	0.134485	220	170	70
-0.071143	0.357093	0.217394	220	170	70
0.188897	0.228478	0.298881	220	170	70
0.14325	0.297679	0.164762	220	170	70
0.134471	0.18684	-0.397946	220	170	70
0.063111	0.076437	-0.388771	220	170	70
0.191833	0.233677	0.261575	220	170	70
0.134874	-0.069846	0.055236	220	170	70
-0.135775	-0.157589	-0.109272	220	170	70
0.292003	0.235433	-0.002791	220	170	70
0.089954	-0.058591	0.334562	220	170	70
0.023916	0.128222	0.171708	220	170	70
0.037932	-0.038624	0.089099	220	170	70
0.0281	0.126928	0.091413	220	170	70
-0.040762	0.151615	0.363671	220	170	70
-0.037129	0.082535	0.379607	220	170	70
-0.169877	-0.110557	0.320743	220	170	70
0.039602	0.185248	0.180494	220	170	70
-0.123795	0.191059	0.47958	220	170	70
-0.235582	0.439436	0.028682	220	170	70
-0.154105	0.111715	-0.509231	220	170	70
-0.177394	0.298888	-0.361142	220	170	70
-0.275136	0.239063	0.365831	220	170	70
-0.242585	-0.257635	0.163503	220	170	70
-0.342276	-0.241505	-0.167083	220	170	70
0.002378	0.40073	-0.140134	220	170	70
0.096413	-0.095776	0.2096	220	170	70
0.08207	0.066413	0.108977	220	170	70
0.02976	-0.064916	0.054634	220	170	70
0.061511	0.077769	0.073249	220	170	70
0.03369	0.104753	0.343041	220	170	70
0.018213	0.083111	0.276012	220	170	70
0.072635	-0.113158	0.148017	220	170	70
0.00866	0.115944	0.178998	220	170	70
0.229513	0.151853	0.158025	220	170	70
0.214897	0.240607	-0.004308	220	170	70
0.054355	0.152023	-0.322722	220	170	70
0.010642	0.101208	-0.286408	220	170	70
0.156676	0.265576	0.108233	220	170	70
0.145755	-0.140754	-0.035433	220	170	70
-0.117172	-0.062318	-0.129608	220	170	70
0.267483	0.169717	-0.133808	220	170	70
0.081694	-0.159495	0.028445	220	170	70
-0.250079	0.20672	-0.224831	220	170	70
-0.139825	0.017618	-0.42953	220	170	70
-0.054496	0.373432	-0.260832	220	170	70
-0.330992	0.122788	0.009406	220	170	70
0.052384	-0.123901	-0.041901	220	170	70
-0.253899	-0.206995	-0.326661	220	170	70
0.108071	0.328745	-0.150684	220	170	70
0.200172	0.132555	0.230127	220	170	70
0.129799	0.232526	0.053146	220	170	70
0.028078	0.060626	-0.421984	220	170	70
-0.04855	0.047828	-0.404438	220	170	70
0.143062	0.210026	0.239758	220	170	70
0.10509	-0.167017	0.006089	220	170	70
-0.073645	-0.03906	-0.165595	220	170	70
0.270534	0.178307	-0.046191	220	170	70
0.091312	-0.085601	0.22779	220	170	70
0.063934	0.011424	0.08778	220	170	70
-0.006654	-0.093235	0.060119	220	170	70
0.053804	-0.010379	0.069976	220	170	70
-0.008228	0.114076	0.271588	220	170	70
0.020616	0.069802	0.293067	220	170	70
0.078554	-0.075535	0.112517	220	170	70
0.033104	0.094145	0.276988	220	170	70
0.180412	0.042396	0.267812	220	170	70
0.185014	0.192713	0.106025	220	170	70
0.201971	0.159889	0.008234	220	170	70
0.184631	0.149806	0.044832	220	170	70
0.177418	0.162089	0.182809	220	170	70
0.150791	-0.081007	0.083696	220	170	70
0.123718	-0.165707	0.112437	220	170	70
0.203564	0.160223	0.088581	220	170	70
0.103403	0.199483	0.266089	220	170	70
-0.106392	0.291654	-0.09908	220	170	70
-0.057754	0.078574	-0.514009	220	170	70
-0.058254	0.110541	-0.441431	220	170	70
-0.096012	0.271829	0.195491	220	170	70
-0.136322	-0.161312	-0.016952	220	170	70
-0.192886	-0.088944	-0.264547	220	170	70
0.13725	0.19661	-0.192047	220	170	70
-0.204076	0.263206	0.265898	220	170	70
-0.320758	0.341231	0.03967	220	170	70
-0.341507	0.219651	-0.291428	220	170	70
-0.381905	0.297272	-0.238931	220	170	70
-0.362218	0.286073	0.116055	220	170	70
-0.417553	0.002566	0.189565	220	170	70
-0.443512	-0.157952	-0.171352	220	170	70
-0.100677	0.38917	0.152617	220	170	70
-0.110135	0.200065	0.24011	220	170	70
-0.285936	0.26518	0.050293	220	170	70
-0.298925	0.076501	-0.012101	220	170	70
-0.327583	0.206527	-0.040951	220	170	70
-0.313937	0.159822	0.123313	220	170	70
-0.129284	-0.263454	0.055015	220	170	70
-0.31904	-0.241618	0.03732	220	170	70
-0.031081	0.318527	0.143729	220	170	70
0.084333	0.208158	0.112122	220	170	70
-0.300763	0.285746	0.006457	220	170	70
-0.165236	0.044355	-0.197701	220	170	70
-0.202446	0.327341	-0.102504	220	170	70
-0.309614	0.17828	0.150414	220	170	70
-0.188483	-0.223695	0.056517	220	170	70
-0.363268	-0.265311	-0.031159	220	170	70
0.017141	0.334268	-0.100305	220	170	70
-0.066405	0.006199	0.543695	220	170	70
-0.16653	0.056312	0.529634	220	170	70
-0.123921	-0.073256	0.503881	220	170	70
-0.147798	0.07547	0.507484	220	170	70
-0.138504	0.050472	0.564024	220	170	70
-0.055848	0.002751	0.575083	220	170	70
-0.164722	-0.063654	0.559819	220	170	70
-0.033373	0.126519	0.55186	220	170	70
-0.21485	-0.25336	0.110734	220	170	70
-0.365954	0.090798	-0.149501	220	170	70
-0.216429	-0.20523	-0.319657	220	170	70
-0.189819	0.234062	-0.192551	220	170	70
-0.388725	-0.145624	0.051038	220	170	70
-0.249962	-0.191149	0.131026	220	170	70
-0.194382	-0.34117	-0.132608	220	170	70
-0.162855	0.202242	-0.10851	220	170	70
-0.195133	0.005376	0.401984	220	170	70
-0.260005	0.10379	0.238333	220	170	70
-0.271301	0.002739	0.220372	220	170	70
-0.243925	0.191263	0.197314	220	170	70
-0.263782	0.063901	0.305059	220	170	70
-0.226559	-0.083528	0.420063	220	170	70
-0.285103	-0.018442	0.25305	220	170	70
-0.139291	0.242699	0.319225	220	170	70
-0.220054	-0.282408	0.133102	220	170	70
-0.445596	0.095274	-0.020014	220	170	70
-0.265921	-0.328991	-0.167606	220	170	70
-0.248758	0.357261	-0.057073	220	170	70
-0.414696	-0.206395	0.092512	220	170	70
-0.206165	-0.264048	0.246171	220	170	70
-0.352724	-0.368263	-0.070006	220	170	70
-0.277075	0.319282	0.128907	220	170	70
-0.285685	-0.141675	0.085285	220	170	70
-0.443087	0.069554	-0.055172	220	170	70
-0.374324	-0.169783	-0.109969	220	170	70
-0.294555	0.28839	-0.072693	220	170	70
-0.42504	-0.0171	-0.031457	220	170	70
-0.307728	-0.119172	0.126373	220	170	70
-0.377765	-0.261486	-0.041964	220	170	70
-0.085434	0.332248	0.096273	220	170	70
-0.335752	-0.056817	0.251705	220	170	70
-0.373391	0.198579	-0.173593	220	170	70
-0.459461	-0.066087	-0.37699	220	170	70
-0.222028	0.327222	-0.418665	220	170	70
-0.463376	-0.008781	0.030704	220	170	70
-0.395234	-0.081463	0.072907	220	170	70
-0.396573	-0.193588	-0.418732	220	170	70
-0.094029	0.389336	0.018147	220	170	70
0.127433	0.055618	0.447159	220	170	70
0.09661	-0.090194	0.050613	220	170	70
-0.023369	-0.010709	-0.424305	220	170	70
-0.017901	-0.045546	-0.380403	220	170	70
0.12889	-0.083669	0.416228	220	170	70
0.014454	0.109344	0.167622	220	170	70
0.013174	0.015926	-0.210902	220	170	70
0.135202	-0.114596	-0.020783	220	170	70
-0.06273	0.23232	0.483532	220	170	70
-0.16388	0.32916	0.107691	220	170	70
-0.164784	0.143726	-0.526971	220	170	70
-0.305617	0.07752	-0.472359	220	170	70
-0.247808	0.267013	0.325067	220	170	70
-0.382333	-0.140558	0.162841	220	170	70
-0.383717	0.009157	-0.201678	220	170	70
-0.009721	0.371012	-0.022505	220	170	70
-0.288888	-0.245847	0.066945	220	170	70
-0.32666	0.068918	-0.282907	220	170	70
-0.256466	-0.203264	-0.41006	220	170	70
-0.202505	0.326643	-0.263746	220	170	70
-0.415576	-0.081822	-0.083144	220	170	70
-0.333007	-0.114856	0.039221	220	170	70
-0.293911	-0.289958	-0.280066	220	170	70
-0.182644	0.252204	-0.166591	220	170	70
0.118671	0.036414	0.000736	220	170	70
-0.130641	0.157901	-0.110145	220	170	70
-0.057132	0.033098	-0.305516	220	170	70
-0.057229	0.100471	-0.26268	220	170	70
-0.052451	0.198945	-0.008178	220	170	70
0.016733	0.082113	-0.059571	220	170	70
-0.193548	-0.0357	-0.159592	220	170	70
0.092802	0.189503	-0.135076	220	170	70
-0.194276	-0.04032	0.362474	220	170	70
-0.311476	0.127889	0.110319	220	170	70
-0.252612	-0.003972	-0.024347	220	170	70
-0.276753	0.17307	-0.018262	220	170	70
-0.285533	0.086111	0.217212	220	170	70
-0.242011	-0.135536	0.359838	220	170	70
-0.32535	-0.209616	0.077424	220	170	70
-0.131974	0.263282	0.180888	220	170	70
-0.052019	-0.018181	0.257558	220	170	70
-0.247097	0.097122	0.152228	220	170	70
-0.253358	-0.095941	0.058246	220	170	70
-0.249753	0.118817	0.049505	220	170	70
-0.246998	0.060537	0.26359	220	170	70
-0.207823	-0.001182	0.275531	220	170	70
-0.244717	-0.103392	0.158892	220	170	70
-0.169957	0.202539	0.270821	220	170	70
-0.247764	0.205843	0.333324	220	170	70
-0.264243	0.257681	-0.1755	220	170	70
-0.239679	0.113464	-0.557588	220	170	70
-0.153089	0.18745	-0.478127	220	170	70
-0.291411	0.253173	0.169823	220	170	70
-0.382435	0.091612	0.074478	220	170	70
-0.313641	-0.055597	-0.348405	220	170	70
0.037975	0.293944	-0.197754	220	170	70
0.099362	-0.056575	0.205959	220	170	70
0.081873	0.009132	0.143037	220	170	70
-0.051259	-0.090423	0.067002	220	170	70
0.043337	-0.011321	0.074546	220	170	70
0.069433	0.094217	0.228931	220	170	70
0.014292	0.069801	0.225652	220	170	70
0.03581	-0.102516	0.154671	220	170	70
0.065267	0.123277	0.206307	220	170	70
