0.028397	0.225018	-0.355728	220	170	70
0.311139	-0.211154	-0.085124	220	170	70
0.03858	0.021424	0.285616	220	170	70
0.084683	0.320128	-0.067112	220	170	70
-0.286207	0.116119	0.248632	220	170	70
-0.632669	-0.042524	-0.150701	220	170	70
-0.128537	-0.088866	0.334557	220	170	70
0.309473	-0.263235	-0.073593	220	170	70
-0.221639	-0.20161	-0.158016	220	170	70
0.225445	-0.236211	-0.318643	220	170	70
-0.16396	0.110742	0.447834	220	170	70
-0.369573	-0.085977	0.421803	220	170	70
0.105523	0.115592	0.09339	220	170	70
-0.088026	-0.413413	-0.292722	220	170	70
-0.129619	0.327864	0.13038	220	170	70
0.019458	0.00336	-0.193456	220	170	70
0.018887	-0.455224	0.13738	220	170	70
0.083742	-0.457495	-0.387538	220	170	70
0.129002	0.077643	0.007398	220	170	70
0.234046	0.221762	-0.100992	220	170	70
-0.276258	-0.098063	-0.145328	220	170	70
-0.406766	-0.36093	-0.149448	220	170	70
-0.11671	0.113544	-0.332339	220	170	70
0.044034	-0.413149	0.316099	220	170	70
-0.017047	0.117982	0.143905	220	170	70
-0.093432	-0.519351	-0.163473	220	170	70
0.144887	-0.260342	0.01079	220	170	70
0.327184	0.380627	-0.144734	220	170	70
-0.302678	-0.098556	0.474581	220	170	70
-0.027094	-0.519242	-0.110089	220	170	70
-0.228723	0.116004	-0.323421	220	170	70
0.042694	-0.530157	0.218059	220	170	70
0.125628	-0.045202	-0.032379	220	170	70
0.470345	0.583463	-0.219045	220	170	70
0.309771	0.268576	0.072146	220	170	70
0.194998	-0.090146	0.013746	220	170	70
0.382098	-0.413058	-0.316057	220	170	70
0.238352	-0.138911	0.043794	220	170	70
0.095538	0.118029	0.070015	220	170	70
0.064314	-0.154836	-0.086209	220	170	70
0.017552	-0.360044	0.219086	220	170	70
0.501399	0.064298	-0.129401	220	170	70
-0.077477	0.161914	0.286503	220	170	70
-0.253877	-0.360368	0.142949	220	170	70
-0.543902	-0.053599	0.062378	220	170	70
-0.095513	0.117838	-0.457229	220	170	70
0.357353	-0.029888	0.02405	220	170	70
0.022555	-0.528422	0.160502	220	170	70
-0.116483	0.327997	0.037098	220	170	70
0.108724	0.117208	-0.421259	220	170	70
0.098504	-0.413839	0.071823	220	170	70
0.211553	0.422567	0.217151	220	170	70
-0.045204	-0.366417	0.042906	220	170	70
-0.059393	0.107197	-0.621515	220	170	70
-0.002987	0.214919	0.138399	220	170	70
0.253759	0.011663	-0.018712	220	170	70
0.306928	-0.412629	-0.301869	220	170	70
-0.527897	-0.190194	-0.07028	220	170	70
-0.236203	0.121532	0.199001	220	170	70
-0.091145	-0.508353	-0.15843	220	170	70
0.086998	0.001029	-0.143263	220	170	70
0.002857	0.117346	0.209309	220	170	70
0.490083	0.222143	-0.11865	220	170	70
0.00456	-0.359793	0.098227	220	170	70
-0.047604	-0.466325	-0.246324	220	170	70
0.082868	0.329503	0.283233	220	170	70
0.270422	-0.518578	-0.158417	220	170	70
0.16768	0.327862	0.047926	220	170	70
-0.000936	-0.364959	0.07911	220	170	70
0.016301	-0.351747	0.106758	220	170	70
0.309744	-0.465735	-0.344977	220	170	70
0.121314	-0.035797	-0.059991	220	170	70
0.102616	0.335266	-0.029872	220	170	70
-0.006691	0.233199	-0.419181	220	170	70
-0.326484	0.1747	0.411306	220	170	70
-0.121984	0.317524	0.085879	220	170	70
0.388401	-0.034546	-0.19211	220	170	70
0.169104	-0.359967	0.28717	220	170	70
0.467456	-0.095206	-0.242577	220	170	70
0.110949	-0.41271	-0.243864	220	170	70
0.041814	-0.424145	0.123477	220	170	70
0.267015	0.224931	-0.268804	220	170	70
0.248783	0.052866	-0.19189	220	170	70
-0.432481	-0.197415	0.116615	220	170	70
0.180605	-0.57868	-0.221365	220	170	70
-0.169052	0.222395	0.238828	220	170	70
0.027646	0.280176	-0.087515	220	170	70
0.032967	-0.100221	-0.164054	220	170	70
-0.19646	-0.09892	0.511433	220	170	70
0.223016	-0.412891	0.190466	220	170	70
-0.080376	-0.136004	-0.063132	220	170	70
0.234112	-0.200844	0.071622	220	170	70
0.500693	0.064037	-0.036688	220	170	70
-0.486518	-0.095971	-0.272189	220	170	70
-0.26425	-0.199846	0.185901	220	170	70
0.052479	-0.147799	-0.269689	220	170	70
0.4878	-0.042417	-0.329403	220	170	70
-0.004169	0.486571	-0.191277	220	170	70
0.414459	0.275145	-0.155367	220	170	70
0.271935	-0.209269	-0.085718	220	170	70
0.238076	-0.577011	-0.120292	220	170	70
-0.033833	-0.465267	0.109478	220	170	70
0.169697	-0.306582	0.021869	220	170	70
0.068576	0.328698	-0.087342	220	170	70
0.406305	0.116184	-0.00499	220	170	70
0.183357	0.589864	-0.19113	220	170	70
-0.303962	-0.045044	0.172707	220	170	70
-0.22807	-0.201988	0.343499	220	170	70
-0.230376	-0.19517	0.349101	220	170	70
-0.329275	-0.312847	-0.145711	220	170	70
-0.257204	0.006916	0.486921	220	170	70
0.341378	0.216335	-0.238637	220	170	70
0.048965	0.222296	0.3087	220	170	70
-0.029768	0.007288	-0.231097	220	170	70
-0.201617	-0.201456	0.087531	220	170	70
0.333105	0.21989	-0.024129	220	170	70
0.355524	-0.306663	-0.286635	220	170	70
-0.095833	0.055041	-0.039746	220	170	70
0.236411	-0.359747	-0.148894	220	170	70
-0.143632	0.020136	0.116626	220	170	70
-0.248388	-0.148532	0.333446	220	170	70
-0.129705	0.327931	0.058264	220	170	70
0.118411	-0.624992	-0.226675	220	170	70
-0.022686	-0.253857	0.144527	220	170	70
0.525562	0.377151	-0.018565	220	170	70
-0.024046	0.486457	-0.240066	220	170	70
0.144648	-0.150842	0.244698	220	170	70
-0.170168	-0.201001	0.050403	220	170	70
-0.069799	-0.521912	0.139534	220	170	70
0.121877	0.11772	0.139949	220	170	70
0.280524	0.380715	-0.210202	220	170	70
0.129349	0.158407	-0.306498	220	170	70
0.290246	0.424707	-0.197935	220	170	70
0.204515	-0.572027	-0.302271	220	170	70
-0.067597	-0.265165	0.140557	220	170	70
-0.007849	-0.466264	-0.193204	220	170	70
-0.245514	0.070005	-0.205927	220	170	70
0.593635	-0.095424	-0.265125	220	170	70
0.068852	0.008226	-0.138049	220	170	70
0.380986	-0.358705	-0.031068	220	170	70
0.12764	0.065268	0.01429	220	170	70
-0.020243	-0.518713	0.178173	220	170	70
-0.030775	0.486387	-0.318422	220	170	70
0.546981	-0.041939	-0.127236	220	170	70
-0.261829	0.064836	0.219447	220	170	70
-0.364556	-0.03912	-0.168997	220	170	70
0.042645	-0.201442	-0.077821	220	170	70
-0.07326	0.224278	0.170752	220	170	70
-0.115889	0.433091	-0.377789	220	170	70
-0.082329	0.074086	-0.026285	220	170	70
0.09531	0.223138	-0.03415	220	170	70
0.017127	0.428056	-0.218289	220	170	70
-0.216139	-0.094138	0.254935	220	170	70
0.4777	0.012922	-0.095104	220	170	70
-0.096647	0.433492	-0.263508	220	170	70
-0.440467	-0.202113	0.147308	220	170	70
0.057182	-0.202186	0.193197	220	170	70
0.483236	0.010387	-0.088823	220	170	70
0.0358	0.222746	-0.314713	220	170	70
-0.194923	-0.25442	-0.098286	220	170	70
0.194933	-0.580667	-0.150924	220	170	70
-0.321013	0.116544	-0.151266	220	170	70
-0.150864	0.167305	-0.955323	220	170	70
0.217245	0.167308	-0.196072	220	170	70
0.030693	-0.360125	0.261494	220	170	70
0.022665	0.22267	-0.350949	220	170	70
-0.427609	-0.041722	0.083103	220	170	70
0.307235	0.221728	-0.043645	220	170	70
-0.149529	-0.095143	0.089162	220	170	70
-0.089796	0.169701	0.281286	220	170	70
-0.226237	-0.308931	0.475968	220	170	70
0.57063	0.334507	-0.056298	220	170	70
0.230015	0.212717	-0.313271	220	170	70
-0.365197	-0.087614	-0.163037	220	170	70
-0.234397	-0.254866	0.117448	220	170	70
-0.269296	-0.408048	-0.249527	220	170	70
0.217079	0.009494	0.087419	220	170	70
-0.468344	-0.142797	0.140991	220	170	70
-0.070526	0.010418	0.342725	220	170	70
0.156661	-0.306937	-0.333048	220	170	70
0.329715	-0.295155	-0.306682	220	170	70
0.276453	-0.30595	-0.050933	220	170	70
0.558486	0.326252	-0.037617	220	170	70
0.114017	-0.456123	-0.351324	220	170	70
0.488633	0.372827	-0.116494	220	170	70
-0.040538	0.536166	-0.322852	220	170	70
-0.148868	0.115866	-0.308759	220	170	70
0.01727	0.021423	0.279917	220	170	70
-0.016946	0.222565	-0.404075	220	170	70
-0.1988	-0.405158	-0.238554	220	170	70
-0.578355	-0.202125	-0.062389	220	170	70
0.001858	0.33375	-0.13181	220	170	70
-0.048313	-0.413305	-0.184615	220	170	70
0.263359	-0.159356	-0.157728	220	170	70
0.050832	-0.353053	0.109537	220	170	70
-0.122799	0.222412	0.223868	220	170	70
-0.090668	0.375984	0.076165	220	170	70
0.515783	0.370675	-0.029134	220	170	70
0.081213	0.340664	0.262314	220	170	70
0.148074	-0.199882	0.231523	220	170	70
-0.240598	-0.466679	-0.1913	220	170	70
-0.02496	-0.147029	0.098348	220	170	70
-0.28849	0.001489	-0.079682	220	170	70
-0.029999	-0.200694	-0.11109	220	170	70
-0.247101	-0.15967	0.32397	220	170	70
-0.487624	-0.041974	0.062594	220	170	70
0.095434	0.16958	-0.435919	220	170	70
0.238677	0.686506	-0.075165	220	170	70
-0.11962	0.127129	0.025502	220	170	70
0.087126	0.173958	0.093141	220	170	70
0.02551	-0.001159	-0.396531	220	170	70
0.163406	-0.243444	0.228833	220	170	70
0.186747	-0.348501	-0.369284	220	170	70
-0.068121	-0.413394	-0.316023	220	170	70
0.050778	-0.19666	-0.055021	220	170	70
0.070413	-0.135823	-0.090768	220	170	70
-0.117827	0.065631	0.349887	220	170	70
-0.420123	0.072158	0.350263	220	170	70
0.023568	0.210739	0.121962	220	170	70
0.37064	-0.417997	-0.305706	220	170	70
-0.063368	0.115101	-0.577336	220	170	70
-0.354719	0.0184	0.355509	220	170	70
-0.401488	-0.089713	-0.211519	220	170	70
0.525841	0.327217	-0.081816	220	170	70
-0.21351	-0.413443	0.190982	220	170	70
0.600884	-0.201402	-0.147344	220	170	70
-0.078708	-0.08282	-0.103287	220	170	70
-0.082918	0.001587	0.339331	220	170	70
-0.177646	-0.418176	-0.093099	220	170	70
-0.529828	-0.298186	-0.157185	220	170	70
0.146129	-0.092615	0.134141	220	170	70
-0.288704	-0.094071	0.213161	220	170	70
0.090318	0.009856	-0.096954	220	170	70
-0.228232	0.116808	0.075596	220	170	70
0.331181	0.39251	-0.143579	220	170	70
0.048757	0.328773	-0.095771	220	170	70
0.241533	-0.307107	0.143323	220	170	70
-0.23539	-0.417979	-0.110944	220	170	70
0.145827	-0.419561	-0.310471	220	170	70
-0.532834	-0.095768	-0.193692	220	170	70
0.016178	0.538454	-0.146918	220	170	70
-0.065258	-0.197469	-0.130402	220	170	70
0.266957	0.221737	0.073272	220	170	70
-0.055131	-0.359845	-0.205217	220	170	70
0.023165	-0.349892	-0.221917	220	170	70
-0.161889	-0.201186	-0.046041	220	170	70
0.57406	-0.095531	-0.273861	220	170	70
0.250532	0.63539	-0.13907	220	170	70
-0.046119	-0.515701	-0.174266	220	170	70
0.208032	0.43064	-0.094885	220	170	70
-0.314621	0.116411	-0.263358	220	170	70
0.023921	-0.354443	0.064719	220	170	70
0.03738	-0.253544	-0.321914	220	170	70
-0.513946	0.003049	0.080693	220	170	70
0.283908	-0.515683	-0.145492	220	170	70
-0.480902	-0.041957	0.056087	220	170	70
-0.062884	-0.20275	0.468769	220	170	70
0.38818	0.117146	-0.265378	220	170	70
-0.284429	-0.045149	-0.120471	220	170	70
0.42065	0.010509	-0.096185	220	170	70
-0.023149	-0.20059	-0.03173	220	170	70
-0.411509	-0.000058	-0.151981	220	170	70
-0.397686	-0.42374	-0.119396	220	170	70
0.303123	0.065948	-0.151331	220	170	70
0.204571	-0.571627	-0.156061	220	170	70
-0.078659	0.00584	-0.035005	220	170	70
0.10861	-0.304818	-0.309362	220	170	70
0.236521	-0.211704	0.081892	220	170	70
0.067454	0.007291	-0.137106	220	170	70
0.017964	0.073355	0.386338	220	170	70
0.134846	0.433747	-0.335488	220	170	70
-0.195519	0.222188	0.289435	220	170	70
0.306645	0.432013	-0.161808	220	170	70
0.046214	-0.307396	0.096178	220	170	70
-0.010628	0.11597	-0.507373	220	170	70
-0.261602	0.116809	0.27617	220	170	70
-0.019481	0.220265	0.361908	220	170	70
0.009102	-0.297841	-0.246456	220	170	70
0.229701	-0.359766	-0.178633	220	170	70
-0.585777	-0.002278	-0.224605	220	170	70
-0.030218	0.222506	0.162265	220	170	70
-0.079955	-0.625476	-0.236919	220	170	70
0.080493	0.321402	-0.097279	220	170	70
-0.137896	0.006993	-0.255849	220	170	70
-0.417497	0.069831	0.374051	220	170	70
0.26088	-0.254364	0.105012	220	170	70
-0.512932	-0.095788	-0.217087	220	170	70
-0.029341	0.430976	0.015748	220	170	70
-0.140214	0.114975	0.013883	220	170	70
0.242183	0.231692	-0.110448	220	170	70
-0.057721	0.118229	0.02062	220	170	70
-0.301458	0.117207	0.18799	220	170	70
0.00257	0.169438	-0.411612	220	170	70
-0.00428	0.38108	-0.038895	220	170	70
0.18209	-0.303973	0.012509	220	170	70
-0.473291	0.010499	-0.183163	220	170	70
0.314531	0.635381	-0.189918	220	170	70
-0.038136	0.003747	0.206619	220	170	70
-0.005481	0.373168	-0.010969	220	170	70
-0.030673	0.433664	0.018137	220	170	70
0.508455	0.049636	-0.139398	220	170	70
0.091782	-0.518971	-0.253604	220	170	70
-0.433816	-0.095187	-0.029839	220	170	70
-0.458371	-0.199303	0.136128	220	170	70
0.214771	0.126976	-0.336681	220	170	70
0.145165	-0.624956	-0.228177	220	170	70
0.032595	0.006625	-0.188209	220	170	70
-0.080602	0.007418	-0.261339	220	170	70
-0.024022	0.484785	0.060381	220	170	70
0.646675	-0.095382	-0.228988	220	170	70
0.003187	-0.506456	0.133799	220	170	70
-0.143407	0.106662	0.461666	220	170	70
-0.531752	-0.047536	-0.095455	220	170	70
-0.142627	0.167099	0.138374	220	170	70
0.257599	0.005409	-0.02203	220	170	70
-0.381677	-0.255016	0.123649	220	170	70
-0.232996	0.179576	-0.243026	220	170	70
-0.27029	-0.193347	0.172929	220	170	70
0.247989	-0.202424	0.08557	220	170	70
-0.381652	0.064322	-0.160149	220	170	70
0.268602	-0.250412	-0.352493	220	170	70
0.483062	0.370013	-0.117468	220	170	70
-0.03659	0.024943	0.219506	220	170	70
-0.029183	-0.25387	0.0428	220	170	70
0.591182	0.069484	-0.243565	220	170	70
-0.50994	0.001418	0.071821	220	170	70
0.102997	-0.420995	0.274765	220	170	70
-0.078435	-0.263059	0.451521	220	170	70
-0.057255	-0.457737	0.129337	220	170	70
-0.03735	0.331048	-0.33107	220	170	70
0.467716	0.201344	-0.100763	220	170	70
-0.382736	0.067391	-0.18743	220	170	70
0.394438	0.222343	-0.184887	220	170	70
-0.167811	-0.359972	-0.238895	220	170	70
-0.26084	-0.307288	0.193622	220	170	70
0.030915	-0.359879	-0.220309	220	170	70
0.362181	-0.359615	-0.276121	220	170	70
-0.546094	-0.042851	-0.170579	220	170	70
-0.506056	-0.255647	-0.168422	220	170	70
0.03769	-0.614205	-0.347891	220	170	70
-0.532761	-0.202378	-0.201784	220	170	70
0.207434	0.429868	0.287538	220	170	70
-0.33227	0.020998	-0.135099	220	170	70
-0.313344	-0.085869	0.429313	220	170	70
0.401745	0.125472	-0.12816	220	170	70
0.141142	-0.085281	-0.008593	220	170	70
0.030878	-0.096458	-0.123202	220	170	70
-0.132739	0.12511	-0.893417	220	170	70
-0.287009	-0.024275	-0.015011	220	170	70
0.014929	-0.043926	0.307747	220	170	70
0.234488	0.221693	-0.314535	220	170	70
0.445622	0.218698	-0.141094	220	170	70
-0.46516	-0.042363	-0.187602	220	170	70
-0.272357	-0.265353	0.123103	220	170	70
0.028136	-0.607085	-0.354896	220	170	70
-0.076616	0.061097	-0.040692	220	170	70
0.339689	-0.044502	-0.138723	220	170	70
-0.055147	0.18892	0.479248	220	170	70
-0.016816	-0.099428	0.056913	220	170	70
-0.248206	-0.254746	-0.106607	220	170	70
-0.386564	-0.413748	-0.122088	220	170	70
-0.104587	0.115326	-0.744236	220	170	70
-0.080461	-0.000973	-0.015713	220	170	70
0.489372	-0.096107	-0.085091	220	170	70
-0.005281	-0.208213	-0.111514	220	170	70
-0.053312	-0.518775	0.133753	220	170	70
0.21621	-0.357306	0.120333	220	170	70
-0.010949	-0.404096	0.127793	220	170	70
0.032637	-0.515703	0.193177	220	170	70
-0.248977	0.113203	-0.330194	220	170	70
-0.259701	-0.300864	0.148965	220	170	70
0.20763	0.117215	0.112531	220	170	70
-0.249461	-0.265647	-0.169288	220	170	70
0.117158	-0.349635	0.113521	220	170	70
0.261596	0.635444	-0.064632	220	170	70
-0.469371	0.022465	-0.179535	220	170	70
-0.057087	-0.463849	-0.273343	220	170	70
-0.279187	-0.050981	0.294325	220	170	70
0.314299	-0.201308	-0.081669	220	170	70
-0.043599	0.275396	-0.340149	220	170	70
-0.309276	-0.097683	0.437564	220	170	70
0.192137	0.636764	-0.08076	220	170	70
0.507517	-0.307083	-0.150323	220	170	70
-0.34938	0.010084	0.350481	220	170	70
-0.356023	0.010132	0.344312	220	170	70
0.198025	-0.082048	0.001968	220	170	70
0.008874	0.434048	-0.207881	220	170	70
0.126365	-0.63401	-0.285982	220	170	70
0.091619	-0.370303	0.273319	220	170	70
0.254623	0.221546	-0.259499	220	170	70
0.266087	0.062441	-0.186805	220	170	70
0.177633	0.739025	-0.222108	220	170	70
-0.254246	-0.307273	0.15772	220	170	70
0.024938	-0.042255	-0.06135	220	170	70
-0.138226	-0.085443	0.279123	220	170	70
-0.004276	0.433925	-0.288413	220	170	70
0.10866	0.11695	-0.375122	220	170	70
-0.434024	-0.041487	-0.155354	220	170	70
0.029539	0.007246	-0.242585	220	170	70
0.333226	-0.095628	-0.083277	220	170	70
-0.023553	-0.307932	-0.374306	220	170	70
0.055521	0.11651	-0.428793	220	170	70
-0.427732	-0.314084	-0.084995	220	170	70
-0.155676	0.222336	0.155839	220	170	70
0.08052	-0.458013	-0.386326	220	170	70
0.100412	0.065004	-0.039802	220	170	70
0.147451	0.170684	-0.296201	220	170	70
0.014428	-0.473131	0.185837	220	170	70
0.098531	-0.194775	-0.069002	220	170	70
-0.248091	0.169381	0.117944	220	170	70
0.029088	0.276163	-0.135717	220	170	70
-0.591182	-0.201039	-0.075264	220	170	70
-0.097544	0.06189	-0.064046	220	170	70
-0.265666	0.013692	0.456153	220	170	70
-0.366298	-0.317272	0.137255	220	170	70
0.497001	-0.208122	-0.17965	220	170	70
0.249276	-0.253778	-0.354754	220	170	70
-0.440332	-0.042267	-0.161603	220	170	70
0.54763	0.061609	-0.099243	220	170	70
-0.128529	-0.200785	-0.242117	220	170	70
-0.044654	-0.300341	0.016251	220	170	70
0.029056	0.223113	0.063475	220	170	70
-0.053475	0.533677	0.322997	220	170	70
0.515688	0.219577	-0.059993	220	170	70
-0.208265	-0.25437	-0.174527	220	170	70
-0.504804	-0.19608	0.103905	220	170	70
-0.064678	-0.094386	-0.125536	220	170	70
-0.134096	0.101033	-0.990827	220	170	70
0.37272	-0.041874	0.021831	220	170	70
0.028804	0.011978	0.272776	220	170	70
0.323228	0.011721	-0.189801	220	170	70
-0.440511	-0.147242	-0.169306	220	170	70
0.50119	0.06426	-0.087116	220	170	70
0.081873	-0.097401	0.045224	220	170	70
0.52745	0.3272	-0.092467	220	170	70
0.030999	-0.412907	0.118477	220	170	70
0.037698	-0.046602	0.318445	220	170	70
-0.076168	0.283533	-0.324373	220	170	70
0.077453	-0.147503	-0.061681	220	170	70
0.485638	-0.316543	-0.185696	220	170	70
0.291542	0.335448	0.072414	220	170	70
-0.087695	0.061504	-0.024866	220	170	70
-0.058739	-0.15461	-0.0889	220	170	70
0.180922	0.431443	0.192337	220	170	70
0.111805	-0.572141	-0.281154	220	170	70
0.201539	0.423675	0.214237	220	170	70
-0.045512	-0.096273	-0.344768	220	170	70
-0.230115	-0.146043	0.349903	220	170	70
-0.006009	0.480103	-0.136752	220	170	70
-0.11653	0.122876	-0.379077	220	170	70
-0.382523	0.064326	-0.151795	220	170	70
-0.271239	-0.087957	0.071771	220	170	70
0.02994	-0.417592	0.125643	220	170	70
0.01622	-0.10575	-0.152942	220	170	70
-0.48529	-0.257401	-0.111873	220	170	70
0.266946	0.221789	0.090296	220	170	70
-0.076778	0.116393	-0.384107	220	170	70
-0.085439	0.072942	-0.037048	220	170	70
0.541155	0.064418	-0.252182	220	170	70
0.104189	-0.0424	-0.086706	220	170	70
0.174951	-0.506499	-0.337733	220	170	70
0.06889	0.222382	0.194151	220	170	70
0.031119	-0.004855	-0.122089	220	170	70
0.247419	-0.20084	0.07608	220	170	70
-0.22737	-0.413321	-0.114223	220	170	70
-0.439909	-0.308334	-0.148859	220	170	70
-0.050279	0.123876	0.535119	220	170	70
0.48073	0.010834	-0.083108	220	170	70
-0.142189	-0.259773	-0.236265	220	170	70
-0.064517	-0.584665	-0.135697	220	170	70
-0.162299	0.159915	-0.95436	220	170	70
0.085614	0.127271	0.081814	220	170	70
-0.080816	0.01977	-0.252084	220	170	70
0.527533	-0.042333	-0.29072	220	170	70
-0.095695	-0.200729	0.106311	220	170	70
-0.113445	0.216177	0.160122	220	170	70
-0.281485	0.169427	-0.21701	220	170	70
0.172429	-0.411878	-0.128991	220	170	70
0.051737	0.336568	-0.137194	220	170	70
-0.179814	-0.198441	0.135319	220	170	70
-0.063994	0.479547	0.318379	220	170	70
-0.5142	-0.095259	0.058449	220	170	70
-0.308541	-0.090715	0.454157	220	170	70
0.121142	-0.467677	-0.332721	220	170	70
0.307698	0.063595	-0.195924	220	170	70
0.613665	0.117182	-0.207559	220	170	70
0.02723	-0.04706	-0.070582	220	170	70
-0.223623	0.113443	-0.256745	220	170	70
0.019045	0.52734	0.304066	220	170	70
0.486379	0.015019	-0.112995	220	170	70
-0.079974	0.006091	-0.018896	220	170	70
-0.109775	0.328019	0.090221	220	170	70
-0.322831	-0.045172	0.453895	220	170	70
0.094114	-0.204478	-0.016883	220	170	70
-0.339726	0.164667	-0.281669	220	170	70
-0.056169	-0.371596	0.026739	220	170	70
0.026429	0.008995	-0.378834	220	170	70
0.256027	-0.306739	-0.050298	220	170	70
-0.24722	-0.245822	-0.18999	220	170	70
0.202571	0.424488	0.223971	220	170	70
-0.018283	0.444493	-0.280305	220	170	70
-0.457614	-0.094504	0.053233	220	170	70
0.027447	-0.298277	0.147486	220	170	70
-0.412497	-0.348997	-0.128102	220	170	70
-0.24844	-0.149119	0.362476	220	170	70
-0.380363	-0.255526	0.136371	220	170	70
0.165926	-0.040356	0.013943	220	170	70
0.074281	-0.264211	0.236786	220	170	70
0.088196	0.327823	0.287767	220	170	70
0.278179	-0.244903	-0.339774	220	170	70
0.015502	0.429155	0.320833	220	170	70
-0.063549	0.32829	-0.342016	220	170	70
-0.002728	0.438108	0.07436	220	170	70
-0.188399	-0.201082	-0.206419	220	170	70
0.248141	0.061096	-0.18705	220	170	70
-0.272952	0.020069	0.326286	220	170	70
-0.294671	0.010564	-0.119723	220	170	70
0.456699	-0.085717	-0.232591	220	170	70
-0.106707	-0.186978	0.505507	220	170	70
-0.236166	0.063173	0.364177	220	170	70
0.1114	-0.468622	0.071913	220	170	70
-0.356032	-0.103353	-0.073684	220	170	70
0.507681	0.169708	-0.093662	220	170	70
0.47869	0.005498	-0.074895	220	170	70
-0.003988	0.486339	-0.127928	220	170	70
-0.240958	0.104459	-0.330251	220	170	70
0.474476	-0.042371	-0.333737	220	170	70
-0.380713	-0.148307	-0.000388	220	170	70
0.467615	0.116962	-0.08499	220	170	70
0.066509	-0.195554	-0.046876	220	170	70
0.143076	-0.200569	-0.322557	220	170	70
-0.076788	0.116217	-0.41788	220	170	70
0.014189	-0.096023	-0.346522	220	170	70
-0.102786	0.056254	-0.052661	220	170	70
0.302075	0.672209	-0.265376	220	170	70
0.253157	-0.093998	0.049563	220	170	70
0.088685	0.486159	-0.093923	220	170	70
-0.019976	0.478049	0.054759	220	170	70
0.334439	-0.254162	-0.034744	220	170	70
0.225827	0.680592	-0.170823	220	170	70
0.114369	0.129432	0.101365	220	170	70
0.029	0.010924	0.382054	220	170	70
-0.040686	0.060918	-0.224078	220	170	70
0.012948	0.486536	-0.195426	220	170	70
-0.129826	0.063155	0.34684	220	170	70
0.555576	-0.035354	-0.125739	220	170	70
-0.140097	-0.306405	-0.168398	220	170	70
-0.101847	-0.306538	0.030476	220	170	70
0.043686	-0.306634	0.058134	220	170	70
0.101454	0.32783	0.264387	220	170	70
-0.289586	-0.259633	-0.185689	220	170	70
-0.068743	-0.306441	0.049503	220	170	70
-0.04379	0.538162	-0.310109	220	170	70
-0.347634	-0.042574	-0.155462	220	170	70
0.069945	-0.18829	0.222163	220	170	70
-0.173973	-0.30822	0.487966	220	170	70
0.150258	-0.19552	-0.31924	220	170	70
-0.054685	0.11916	-0.710818	220	170	70
-0.168597	-0.201073	-0.17918	220	170	70
-0.516781	0.017528	-0.096124	220	170	70
0.046421	-0.137229	-0.341932	220	170	70
-0.249253	-0.299092	0.205498	220	170	70
0.384357	0.209978	-0.163575	220	170	70
0.453876	0.592167	-0.242465	220	170	70
0.094926	0.380975	-0.081274	220	170	70
0.390423	0.584929	-0.286956	220	170	70
0.132227	-0.253712	0.005791	220	170	70
0.405489	0.013791	-0.086124	220	170	70
-0.280554	-0.034238	-0.069268	220	170	70
0.163662	-0.245577	0.041971	220	170	70
-0.073519	-0.572249	-0.177671	220	170	70
0.493539	-0.308683	-0.194	220	170	70
0.18183	0.433097	-0.180971	220	170	70
0.345002	-0.415856	-0.334994	220	170	70
-0.075733	0.123585	-0.680071	220	170	70
-0.008556	-0.412982	0.097314	220	170	70
-0.21581	-0.415235	-0.286856	220	170	70
-0.267479	-0.254943	0.183037	220	170	70
-0.155682	0.380304	-0.331227	220	170	70
0.098214	-0.212505	0.214866	220	170	70
0.467496	0.010764	-0.104307	220	170	70
0.017085	-0.306678	0.194071	220	170	70
0.285789	0.229413	-0.004018	220	170	70
0.002527	0.328538	-0.248346	220	170	70
0.075212	0.328585	-0.066249	220	170	70
0.447477	-0.042089	-0.229539	220	170	70
-0.23558	-0.150654	0.447849	220	170	70
0.150476	0.129955	-0.389843	220	170	70
-0.08254	-0.422035	-0.289035	220	170	70
0.176828	-0.05204	-0.012774	220	170	70
-0.129389	0.117845	0.035402	220	170	70
0.295948	-0.306658	-0.333221	220	170	70
-0.064814	0.489398	0.310654	220	170	70
0.115136	0.223077	-0.057504	220	170	70
0.319368	-0.317866	-0.263197	220	170	70
0.159318	-0.317939	-0.32874	220	170	70
-0.214466	-0.307074	0.172584	220	170	70
0.182286	0.444622	0.187475	220	170	70
0.032926	-0.263358	-0.330038	220	170	70
0.179949	-0.318626	-0.247528	220	170	70
0.314324	-0.459155	-0.347185	220	170	70
-0.130225	-0.245318	0.081292	220	170	70
-0.145511	0.072234	0.353987	220	170	70
-0.571295	-0.145496	-0.092257	220	170	70
0.104156	-0.359563	-0.007969	220	170	70
-0.013841	-0.350831	-0.336611	220	170	70
0.412626	0.176991	-0.122151	220	170	70
-0.012063	0.328024	-0.286174	220	170	70
-0.077179	0.010266	0.348845	220	170	70
0.00791	-0.257682	-0.336816	220	170	70
0.323704	0.478379	-0.049789	220	170	70
0.292847	0.676788	-0.220895	220	170	70
0.244977	-0.22333	0.080591	220	170	70
0.141087	-0.527663	0.165929	220	170	70
-0.149539	-0.210793	-0.042223	220	170	70
0.08144	0.003016	-0.104596	220	170	70
0.303038	0.441061	-0.153587	220	170	70
0.109318	0.327057	0.336078	220	170	70
0.008935	0.003504	-0.401943	220	170	70
0.394076	-0.042388	-0.18291	220	170	70
0.377016	-0.409077	-0.320723	220	170	70
-0.261462	-0.254738	-0.157259	220	170	70
-0.049562	-0.200658	0.044604	220	170	70
0.118503	0.122258	0.127797	220	170	70
-0.162847	0.114929	0.4451	220	170	70
0.360043	0.221877	0.011559	220	170	70
0.186761	0.74459	-0.234015	220	170	70
0.300935	0.169581	-0.267489	220	170	70
-0.473362	-0.314344	-0.164127	220	170	70
-0.168995	0.116563	-0.251457	220	170	70
0.379832	0.221926	0.02854	220	170	70
-0.315886	-0.097815	0.443794	220	170	70
0.242322	-0.30207	0.188188	220	170	70
-0.134962	-0.306731	0.077187	220	170	70
-0.264585	0.124898	0.267546	220	170	70
0.17427	0.327867	0.071323	220	170	70
0.134844	-0.615173	-0.234525	220	170	70
0.292285	0.210478	0.021323	220	170	70
0.314136	0.01059	-0.179189	220	170	70
0.002722	0.222743	-0.276386	220	170	70
0.139073	-0.315566	-0.240514	220	170	70
-0.003109	-0.468986	0.115762	220	170	70
0.283366	0.374323	-0.185379	220	170	70
-0.194115	-0.306891	-0.22135	220	170	70
-0.158597	0.127075	-0.408343	220	170	70
-0.036659	-0.193772	-0.123153	220	170	70
-0.240059	-0.25157	-0.114082	220	170	70
0.229687	-0.412872	0.143693	220	170	70
-0.221456	-0.201961	0.343539	220	170	70
0.157328	-0.412614	-0.307342	220	170	70
-0.413857	-0.095819	-0.212451	220	170	70
-0.241663	-0.148507	-0.109432	220	170	70
-0.148922	0.344057	0.304886	220	170	70
-0.257714	-0.300775	0.194457	220	170	70
0.076956	-0.306591	0.000615	220	170	70
0.488892	-0.201441	-0.219356	220	170	70
0.346875	0.274827	0.064513	220	170	70
-0.008584	-0.413009	0.131222	220	170	70
0.454245	0.116814	-0.087146	220	170	70
-0.051717	-0.357589	-0.319751	220	170	70
0.27353	0.221785	0.100926	220	170	70
-0.302384	0.116642	0.179315	220	170	70
0.004623	-0.359762	0.072721	220	170	70
-0.232828	-0.519878	-0.182814	220	170	70
0.206619	-0.418997	-0.187021	220	170	70
-0.028609	-0.360041	-0.358204	220	170	70
-0.177081	0.166793	0.424271	220	170	70
0.128259	0.065763	0.127827	220	170	70
0.137509	-0.3059	-0.242493	220	170	70
-0.546215	-0.148583	-0.163346	220	170	70
-0.413596	-0.36097	-0.166316	220	170	70
0.161224	0.065034	0.048876	220	170	70
0.00905	0.328654	-0.131863	220	170	70
-0.150606	0.007522	0.475701	220	170	70
0.159524	0.33811	0.049555	220	170	70
0.183549	-0.307678	0.056722	220	170	70
0.299335	0.234256	-0.039714	220	170	70
0.113169	-0.423692	0.066763	220	170	70
-0.051602	0.104221	-0.555702	220	170	70
-0.385472	-0.083745	-0.11407	220	170	70
-0.261453	-0.201366	0.183222	220	170	70
0.25063	-0.157471	-0.151371	220	170	70
-0.0224	-0.306561	0.030334	220	170	70
0.110619	-0.422031	0.122067	220	170	70
-0.013485	-0.20735	-0.032708	220	170	70
-0.229933	-0.207161	0.190241	220	170	70
0.498417	0.428518	-0.036241	220	170	70
0.026507	0.02053	0.258864	220	170	70
-0.407103	-0.201722	0.024974	220	170	70
0.039295	0.003549	-0.235527	220	170	70
0.091081	-0.209524	-0.050029	220	170	70
0.062703	-0.201505	-0.054249	220	170	70
0.227439	-0.368763	-0.169692	220	170	70
-0.028632	0.315704	0.325425	220	170	70
-0.040433	0.061608	-0.219077	220	170	70
0.15503	0.116578	-0.284351	220	170	70
-0.043531	-0.524654	-0.15054	220	170	70
-0.194638	-0.413502	-0.248144	220	170	70
-0.246023	0.217203	0.249212	220	170	70
0.003944	0.584197	-0.153695	220	170	70
0.208622	0.121571	0.113345	220	170	70
-0.03887	-0.42166	-0.180233	220	170	70
-0.169269	0.16795	0.441156	220	170	70
0.105391	-0.583472	-0.272574	220	170	70
0.289952	0.636639	-0.275778	220	170	70
0.492202	0.428146	-0.047814	220	170	70
-0.002317	-0.253557	-0.347161	220	170	70
-0.436238	-0.302552	-0.075947	220	170	70
0.17937	-0.251825	0.233992	220	170	70
-0.437406	0.008178	-0.189939	220	170	70
-0.30699	-0.31795	0.190974	220	170	70
0.017821	-0.306311	-0.253588	220	170	70
-0.338664	-0.299629	-0.128466	220	170	70
-0.036887	-0.097159	0.477434	220	170	70
-0.428808	-0.204266	0.142856	220	170	70
0.091123	-0.183691	-0.055671	220	170	70
-0.024231	0.530944	0.276484	220	170	70
0.447373	0.116578	-0.05353	220	170	70
-0.304679	0.176461	0.397234	220	170	70
0.209568	-0.359945	0.115358	220	170	70
0.316938	0.635333	-0.189787	220	170	70
-0.225525	-0.367971	0.181815	220	170	70
0.02077	-0.096025	-0.340317	220	170	70
-0.002662	0.385257	-0.044856	220	170	70
-0.114866	0.109837	-0.753705	220	170	70
0.036228	-0.147903	-0.339611	220	170	70
-0.090657	-0.094978	-0.095888	220	170	70
-0.102865	0.222456	0.168537	220	170	70
0.001391	-0.095907	-0.375037	220	170	70
0.280257	0.011295	-0.029442	220	170	70
-0.288016	0.010759	-0.072975	220	170	70
-0.039577	0.012334	0.195713	220	170	70
-0.076616	-0.632838	-0.226266	220	170	70
-0.03427	-0.570892	-0.187021	220	170	70
0.419411	0.173241	0.011144	220	170	70
-0.057198	0.529902	0.330728	220	170	70
0.009603	0.434785	0.310459	220	170	70
-0.403734	-0.09038	-0.008002	220	170	70
-0.022386	-0.316929	0.031058	220	170	70
-0.375931	0.01028	0.325821	220	170	70
-0.329203	-0.097589	0.429574	220	170	70
-0.334423	0.063715	-0.216762	220	170	70
0.394456	0.222349	-0.172102	220	170	70
-0.141126	-0.259258	0.134364	220	170	70
-0.242461	0.063649	0.335504	220	170	70
0.364391	0.21808	0.013957	220	170	70
-0.008925	-0.25357	-0.353484	220	170	70
-0.101659	0.117084	0.449935	220	170	70
-0.049618	0.074617	0.099201	220	170	70
0.131649	-0.518744	0.12072	220	170	70
-0.415561	0.062555	0.353123	220	170	70
-0.408337	-0.152905	-0.136688	220	170	70
0.310143	0.686935	-0.25116	220	170	70
0.224692	-0.041273	0.096004	220	170	70
-0.003735	0.222606	-0.412542	220	170	70
-0.125539	0.113932	-0.967106	220	170	70
0.27681	-0.567661	-0.160763	220	170	70
-0.047681	-0.090525	0.047761	220	170	70
-0.237136	-0.236813	-0.184721	220	170	70
-0.288296	-0.20316	0.16977	220	170	70
-0.318328	-0.090178	0.435761	220	170	70
-0.374133	-0.095779	-0.170201	220	170	70
-0.21456	-0.465515	-0.167572	220	170	70
0.076401	-0.089967	-0.23912	220	170	70
0.174909	-0.253541	0.234989	220	170	70
0.213582	-0.246763	-0.320181	220	170	70
-0.479809	-0.202129	-0.129849	220	170	70
-0.420341	-0.308281	-0.119226	220	170	70
-0.169203	0.274727	-0.242679	220	170	70
0.188544	-0.301973	0.04615	220	170	70
-0.048111	-0.568597	0.139489	220	170	70
-0.374153	-0.308021	-0.157475	220	170	70
-0.151778	0.114468	-0.908987	220	170	70
-0.323767	0.073239	-0.228057	220	170	70
-0.066948	-0.088328	0.080114	220	170	70
0.222961	-0.35995	-0.328669	220	170	70
-0.107089	-0.049301	-0.229084	220	170	70
-0.060262	-0.572211	-0.147962	220	170	70
0.002814	0.222573	0.149724	220	170	70
0.447564	-0.216745	-0.158077	220	170	70
-0.314565	0.010585	-0.16835	220	170	70
0.422788	0.587129	-0.282101	220	170	70
-0.011819	0.395027	-0.04651	220	170	70
-0.486103	-0.308752	-0.159467	220	170	70
0.262229	-0.245417	-0.346993	220	170	70
-0.359504	-0.055001	0.417883	220	170	70
-0.288012	0.173215	0.180488	220	170	70
0.137617	-0.294506	-0.188144	220	170	70
0.504127	-0.212916	-0.291677	220	170	70
-0.274953	-0.147865	0.187998	220	170	70
0.110365	-0.306859	-0.313749	220	170	70
0.486155	0.127216	-0.147995	220	170	70
-0.380056	0.072429	-0.189507	220	170	70
-0.022307	-0.009618	-0.225747	220	170	70
0.311079	-0.096209	0.069019	220	170	70
-0.268072	-0.201398	0.17684	220	170	70
0.401259	0.064077	-0.314536	220	170	70
0.517994	0.22568	-0.06253	220	170	70
0.263585	-0.465578	-0.167397	220	170	70
0.021479	0.012319	0.235748	220	170	70
-0.053488	-0.625361	-0.202938	220	170	70
0.366648	-0.248196	-0.006282	220	170	70
0.044808	-0.314419	0.058094	220	170	70
-0.104027	0.115396	-0.708394	220	170	70
0.521579	0.180083	-0.087872	220	170	70
-0.011189	-0.197911	-0.107744	220	170	70
0.022543	0.063873	0.376125	220	170	70
0.035771	0.222818	0.120387	220	170	70
-0.186279	-0.519665	-0.176446	220	170	70
0.022303	0.530353	0.305771	220	170	70
0.375986	0.01371	-0.248943	220	170	70
-0.110764	0.051783	0.044405	220	170	70
0.16097	0.380811	0.133027	220	170	70
-0.267206	-0.358481	0.203993	220	170	70
0.37415	-0.419501	-0.31201	220	170	70
-0.05818	0.117766	-0.015751	220	170	70
0.098749	-0.301919	-0.314329	220	170	70
0.075018	0.327874	0.272882	220	170	70
-0.10934	0.433125	-0.367193	220	170	70
-0.413814	-0.202125	-0.087482	220	170	70
-0.073728	0.121005	-0.575835	220	170	70
0.102078	-0.201279	-0.024138	220	170	70
0.114863	0.328281	-0.02192	220	170	70
0.416669	0.5808	-0.267512	220	170	70
0.053676	0.492952	-0.142511	220	170	70
-0.238188	0.065106	0.261864	220	170	70
0.02697	-0.204128	-0.048727	220	170	70
-0.10498	-0.195063	0.09107	220	170	70
-0.195685	0.274693	0.314332	220	170	70
-0.433665	-0.148956	-0.178586	220	170	70
-0.069551	0.215743	0.047082	220	170	70
0.214719	0.432404	-0.100531	220	170	70
-0.002073	-0.401209	0.091514	220	170	70
-0.336343	-0.265449	-0.140168	220	170	70
0.267391	-0.254268	0.137063	220	170	70
-0.1896	-0.097578	0.435722	220	170	70
-0.133109	-0.24742	0.103201	220	170	70
-0.138841	0.113767	-0.986401	220	170	70
-0.369157	0.055365	0.353943	220	170	70
0.295623	-0.423815	-0.35088	220	170	70
-0.385259	0.05448	-0.162964	220	170	70
-0.243012	-0.213767	-0.19238	220	170	70
0.07554	0.337424	0.266319	220	170	70
-0.007185	-0.155272	-0.294122	220	170	70
0.199143	-0.094094	0.007274	220	170	70
0.261348	0.157815	-0.2957	220	170	70
0.125714	-0.249317	0.014405	220	170	70
-0.502158	0.015332	0.065311	220	170	70
0.264032	-0.525902	-0.16635	220	170	70
-0.163235	-0.041306	0.214486	220	170	70
-0.122919	0.116442	-0.379001	220	170	70
0.308213	-0.253885	-0.073108	220	170	70
-0.024911	-0.422183	0.069623	220	170	70
-0.131577	0.008687	-0.240688	220	170	70
0.207506	0.43111	0.213537	220	170	70
0.575626	-0.101405	-0.276928	220	170	70
0.134689	0.326421	0.010874	220	170	70
0.289526	-0.412734	-0.349635	220	170	70
-0.479774	-0.25556	0.159379	220	170	70
-0.354242	-0.307911	-0.151166	220	170	70
0.193819	0.012174	0.078899	220	170	70
0.275779	0.442509	-0.195481	220	170	70
0.001554	-0.365554	-0.236131	220	170	70
0.068427	0.381159	-0.104446	220	170	70
0.145373	-0.408665	0.170189	220	170	70
-0.359516	-0.094573	-0.13608	220	170	70
0.051028	-0.149696	-0.340487	220	170	70
-0.35575	-0.097466	0.417689	220	170	70
-0.452287	-0.295932	-0.122611	220	170	70
-0.412151	-0.296101	-0.083371	220	170	70
-0.056948	0.328301	-0.337779	220	170	70
0.211193	-0.571609	-0.147587	220	170	70
0.247368	-0.200676	0.095414	220	170	70
0.494318	-0.306972	-0.188596	220	170	70
-0.118731	0.114953	-0.868104	220	170	70
-0.264353	0.168851	0.096438	220	170	70
0.524526	0.282645	-0.067738	220	170	70
-0.290281	0.059642	0.476122	220	170	70
-0.235166	0.222286	0.257896	220	170	70
0.474102	0.010791	-0.091594	220	170	70
0.02426	-0.09773	-0.125852	220	170	70
-0.048246	-0.413358	-0.294846	220	170	70
-0.456587	-0.136866	0.143733	220	170	70
-0.336695	0.071466	0.327717	220	170	70
-0.184845	-0.306465	-0.233876	220	170	70
0.348779	-0.308455	-0.298784	220	170	70
0.196495	-0.360019	-0.360371	220	170	70
0.110876	-0.469136	-0.39416	220	170	70
0.079118	-0.212333	0.136755	220	170	70
0.410352	0.584759	-0.285283	220	170	70
0.198131	-0.085943	0.015864	220	170	70
-0.048644	-0.003149	-0.134492	220	170	70
-0.512485	-0.089731	0.046364	220	170	70
0.298324	0.124453	-0.290303	220	170	70
0.194672	-0.307085	0.234115	220	170	70
-0.095604	0.104688	-0.216059	220	170	70
-0.052352	-0.087814	0.09604	220	170	70
0.274606	0.221708	-0.238143	220	170	70
-0.036287	-0.568987	-0.20311	220	170	70
0.441081	0.222302	-0.129665	220	170	70
0.2918	0.533174	-0.137045	220	170	70
0.646169	0.170624	-0.214722	220	170	70
0.029823	0.371508	-0.196234	220	170	70
-0.06406	0.115525	-0.682984	220	170	70
-0.314153	-0.307732	0.162006	220	170	70
0.305626	-0.412412	-0.336911	220	170	70
0.159219	-0.417921	-0.145693	220	170	70
-0.138759	0.329567	0.367102	220	170	70
-0.222194	-0.311867	0.479689	220	170	70
0.35403	-0.254504	-0.002709	220	170	70
-0.53877	-0.309178	-0.157583	220	170	70
-0.203441	-0.189681	0.087631	220	170	70
0.090692	-0.091723	0.055617	220	170	70
0.387986	0.063563	-0.142553	220	170	70
0.22761	0.168795	-0.189955	220	170	70
-0.146106	0.339889	0.300847	220	170	70
0.411546	0.005475	-0.094571	220	170	70
0.27392	-0.300259	0.132741	220	170	70
0.213164	-0.31911	-0.389709	220	170	70
0.122896	-0.200515	-0.212342	220	170	70
0.057163	-0.35982	0.106854	220	170	70
0.039177	-0.51875	0.211949	220	170	70
0.240703	0.530452	-0.228877	220	170	70
-0.049867	0.115268	0.464943	220	170	70
-0.51746	-0.206266	-0.090421	220	170	70
-0.349505	-0.309362	-0.20779	220	170	70
-0.107853	-0.403384	0.236235	220	170	70
-0.095286	-0.3065	0.079202	220	170	70
0.357838	0.225778	-0.210162	220	170	70
0.257466	-0.314952	0.159918	220	170	70
0.262333	0.230855	-0.092476	220	170	70
0.387907	0.06411	-0.308294	220	170	70
-0.012487	-0.263528	-0.167138	220	170	70
-0.341819	0.168467	0.338765	220	170	70
-0.06902	-0.092531	-0.007801	220	170	70
-0.139183	0.10476	-0.875589	220	170	70
0.068792	-0.005492	-0.111405	220	170	70
0.107605	-0.561196	-0.32757	220	170	70
0.035088	0.383	-0.201089	220	170	70
0.285975	-0.294597	-0.313666	220	170	70
-0.069853	0.222972	0.052424	220	170	70
-0.181071	-0.36008	0.195792	220	170	70
0.033434	-0.416513	-0.21597	220	170	70
0.398977	0.070582	-0.295858	220	170	70
-0.417327	-0.312631	-0.13076	220	170	70
0.161688	-0.253565	0.241212	220	170	70
0.138401	-0.143392	0.2286	220	170	70
-0.027318	-0.466024	0.171387	220	170	70
-0.009644	-0.302505	0.056181	220	170	70
-0.400594	-0.095241	-0.010923	220	170	70
0.258396	0.635338	-0.060979	220	170	70
0.242433	0.640279	-0.135049	220	170	70
-0.04771	-0.625862	-0.200637	220	170	70
0.091172	-0.412895	-0.337153	220	170	70
0.241792	-0.572386	-0.168901	220	170	70
0.570867	-0.088632	-0.286252	220	170	70
-0.109678	0.11807	0.11182	220	170	70
-0.036874	-0.408165	-0.283153	220	170	70
0.244437	-0.362466	-0.139375	220	170	70
0.172661	-0.305063	0.22661	220	170	70
-0.002847	0.3897	0.049378	220	170	70
0.49407	0.010933	-0.080893	220	170	70
-0.321891	0.168112	0.388635	220	170	70
0.030267	-0.200611	-0.284067	220	170	70
0.428652	0.16599	-0.115558	220	170	70
-0.165644	0.069554	0.371	220	170	70
-0.059919	-0.518766	0.133781	220	170	70
-0.09091	-0.039215	-0.210526	220	170	70
-0.265452	-0.193192	-0.093645	220	170	70
0.04534	-0.400339	-0.203458	220	170	70
-0.039286	0.013388	-0.127543	220	170	70
0.554376	0.064536	-0.11028	220	170	70
0.353258	0.210332	-0.182417	220	170	70
-0.22048	-0.404446	-0.25551	220	170	70
-0.35503	-0.045268	0.431004	220	170	70
-0.418699	-0.157787	-0.170484	220	170	70
0.25132	-0.247839	-0.35928	220	170	70
0.313608	0.060714	-0.163194	220	170	70
0.08367	-0.360001	0.280548	220	170	70
-0.019735	0.225082	0.165262	220	170	70
-0.036113	0.281913	-0.336057	220	170	70
0.076972	0.227711	0.205488	220	170	70
-0.112836	0.108459	0.347044	220	170	70
-0.54171	-0.140289	-0.16045	220	170	70
-0.168651	-0.20109	0.008989	220	170	70
0.098415	-0.518892	-0.234573	220	170	70
-0.535395	-0.051766	-0.21686	220	170	70
-0.287902	-0.006976	-0.134396	220	170	70
0.58053	-0.095451	-0.265266	220	170	70
0.104436	-0.466109	0.075721	220	170	70
-0.212862	0.070218	0.100879	220	170	70
0.087416	-0.190024	0.139783	220	170	70
0.12812	-0.252232	0.013271	220	170	70
0.095802	-0.253759	-0.0744	220	170	70
-0.14106	0.331943	0.337462	220	170	70
0.16067	0.333027	0.045248	220	170	70
-0.220695	-0.253596	-0.182307	220	170	70
-0.171021	-0.209727	0.0553	220	170	70
0.3135	0.697539	-0.243443	220	170	70
-0.015732	0.430086	-0.298216	220	170	70
0.003291	-0.454633	0.127941	220	170	70
-0.166651	-0.308966	0.512163	220	170	70
0.605873	0.165034	-0.068706	220	170	70
-0.227794	-0.254771	0.166137	220	170	70
0.241006	-0.1482	-0.157626	220	170	70
-0.010826	0.433684	0.083718	220	170	70
0.225129	0.225039	0.091758	220	170	70
-0.134543	-0.306599	-0.172761	220	170	70
-0.246449	-0.256861	0.46432	220	170	70
-0.441341	0.02326	-0.071023	220	170	70
0.333709	0.327629	0.098499	220	170	70
-0.12844	-0.098458	0.341947	220	170	70
-0.327361	0.170084	-0.283374	220	170	70
0.21978	0.535518	-0.210482	220	170	70
-0.11328	0.009985	0.009995	220	170	70
-0.549611	-0.141006	-0.152368	220	170	70
0.095587	-0.201401	-0.037067	220	170	70
-0.007914	-0.245277	-0.342279	220	170	70
0.137046	-0.412698	0.086654	220	170	70
-0.233994	-0.413326	-0.112074	220	170	70
0.285234	0.485685	-0.110928	220	170	70
0.194194	0.431144	0.217804	220	170	70
-0.511088	-0.243161	-0.146689	220	170	70
0.06371	-0.359786	0.11963	220	170	70
-0.160627	0.067908	0.471623	220	170	70
-0.009664	-0.2008	0.063678	220	170	70
0.103826	-0.412711	0.120645	220	170	70
0.209656	0.106384	-0.33229	220	170	70
-0.176337	-0.094419	0.252843	220	170	70
-0.078433	0.017653	0.336749	220	170	70
-0.248427	0.169221	-0.299796	220	170	70
0.155124	-0.457234	0.048503	220	170	70
0.427956	0.116943	-0.118926	220	170	70
-0.060727	-0.351827	-0.334236	220	170	70
0.097044	-0.412917	0.273838	220	170	70
0.335638	-0.306625	-0.314209	220	170	70
-0.319563	-0.098122	-0.082322	220	170	70
0.30304	0.472719	-0.107046	220	170	70
0.16164	0.116532	-0.275822	220	170	70
0.097129	-0.306834	-0.313673	220	170	70
0.037721	0.491429	0.311214	220	170	70
0.157114	0.111134	-0.390389	220	170	70
0.514398	-0.201308	-0.162393	220	170	70
0.237674	-0.198572	0.062827	220	170	70
-0.215361	0.221968	-0.1474	220	170	70
-0.092224	0.172337	0.283119	220	170	70
0.242835	-0.306776	-0.356522	220	170	70
-0.314476	-0.307881	-0.10671	220	170	70
0.040872	-0.42565	0.307491	220	170	70
0.194813	0.484771	-0.200135	220	170	70
-0.169945	0.011577	0.12062	220	170	70
0.479984	-0.095446	-0.089775	220	170	70
0.412931	0.286125	-0.147197	220	170	70
0.49168	0.052698	-0.281465	220	170	70
0.368634	-0.204666	-0.128037	220	170	70
0.35755	0.175391	-0.002726	220	170	70
-0.513088	-0.095646	-0.165966	220	170	70
0.507699	-0.201256	-0.183611	220	170	70
0.668024	0.057287	-0.262795	220	170	70
0.181492	0.116442	-0.264871	220	170	70
0.152054	0.434116	0.124824	220	170	70
-0.389216	-0.044255	0.394644	220	170	70
0.190309	-0.095287	0.018425	220	170	70
-0.130194	-0.095622	-0.187325	220	170	70
-0.032018	0.484348	-0.238727	220	170	70
-0.080686	0.070047	0.331399	220	170	70
0.205891	-0.401757	-0.16961	220	170	70
-0.00234	0.482683	-0.21839	220	170	70
-0.412043	-0.137484	-0.035521	220	170	70
0.080878	-0.198943	-0.058106	220	170	70
0.030055	-0.312877	0.140337	220	170	70
0.254431	0.063463	-0.179697	220	170	70
-0.407458	0.064093	-0.097506	220	170	70
0.315733	-0.090338	-0.170726	220	170	70
-0.218221	-0.369714	0.164849	220	170	70
0.105501	-0.602744	-0.285523	220	170	70
-0.257567	0.11001	0.030243	220	170	70
0.023675	-0.253891	-0.008205	220	170	70
-0.299823	-0.302331	0.212589	220	170	70
-0.200977	-0.360057	-0.26849	220	170	70
-0.042611	-0.633202	-0.18509	220	170	70
0.126616	-0.530544	0.119509	220	170	70
0.305743	-0.27124	-0.080779	220	170	70
0.105214	-0.518776	0.099495	220	170	70
-0.287196	-0.095079	0.391555	220	170	70
0.177174	-0.511227	-0.206078	220	170	70
0.467971	-0.201297	-0.160364	220	170	70
-0.336672	-0.297666	-0.125041	220	170	70
0.315639	-0.253647	-0.333405	220	170	70
-0.235227	0.116503	0.321819	220	170	70
-0.104695	0.21297	0.156895	220	170	70
-0.195353	0.074407	0.193851	220	170	70
-0.032811	0.012324	0.202216	220	170	70
-0.387355	-0.30829	-0.091642	220	170	70
-0.187668	-0.413363	-0.097494	220	170	70
0.481611	-0.08468	-0.325614	220	170	70
0.168858	-0.18803	-0.297326	220	170	70
-0.078734	0.007994	0.320133	220	170	70
0.141049	0.4325	0.122394	220	170	70
0.355722	-0.206442	-0.139691	220	170	70
0.138001	-0.519366	-0.361677	220	170	70
0.560005	0.276073	-0.039689	220	170	70
0.105937	0.330568	0.236228	220	170	70
-0.092227	0.057289	-0.068448	220	170	70
-0.539187	-0.096084	-0.287434	220	170	70
-0.002241	-0.359953	-0.245769	220	170	70
0.038281	0.01266	-0.080887	220	170	70
-0.024077	0.153286	-0.484573	220	170	70
0.291961	0.106748	-0.273786	220	170	70
-0.469937	0.020415	-0.250374	220	170	70
0.155883	-0.254272	0.006328	220	170	70
-0.07398	0.007674	-0.038442	220	170	70
-0.039557	0.006934	-0.14665	220	170	70
0.336404	-0.14387	-0.161238	220	170	70
0.344624	0.001673	-0.153366	220	170	70
-0.069926	0.222409	0.219451	220	170	70
0.501409	0.064272	-0.144196	220	170	70
-0.363376	0.00624	0.329288	220	170	70
0.02438	-0.359844	0.072788	220	170	70
0.245529	0.173738	0.104945	220	170	70
-0.158138	-0.10116	0.077696	220	170	70
0.206768	0.535622	-0.201997	220	170	70
-0.126848	-0.301797	0.153297	220	170	70
-0.25784	-0.316591	0.187984	220	170	70
-0.265791	-0.242951	0.189346	220	170	70
0.236996	0.686862	-0.172653	220	170	70
0.322349	-0.306701	-0.069238	220	170	70
0.034678	-0.192434	-0.084575	220	170	70
0.335826	-0.412905	-0.339142	220	170	70
-0.007124	-0.625237	-0.173185	220	170	70
-0.087516	-0.200453	0.117554	220	170	70
0.23262	-0.193966	0.082983	220	170	70
-0.154857	-0.306795	0.159794	220	170	70
-0.254634	0.169227	0.092254	220	170	70
0.005985	-0.519078	-0.088862	220	170	70
-0.01566	0.060633	-0.125167	220	170	70
-0.420455	-0.148895	-0.142479	220	170	70
0.220329	0.53482	-0.077362	220	170	70
-0.112103	0.020675	0.022291	220	170	70
-0.22074	-0.360129	0.174705	220	170	70
-0.137794	0.320553	0.061448	220	170	70
0.035637	0.227783	0.113991	220	170	70
0.007706	-0.453233	0.1403	220	170	70
0.220526	-0.412807	0.11896	220	170	70
0.018748	-0.465922	0.171229	220	170	70
-0.290431	-0.210195	0.173743	220	170	70
0.279355	0.48363	-0.200025	220	170	70
-0.599997	-0.214678	-0.209082	220	170	70
-0.067118	0.058939	-0.303949	220	170	70
-0.355779	-0.26397	-0.189211	220	170	70
0.219845	-0.040612	0.092251	220	170	70
0.333838	-0.148237	-0.168741	220	170	70
0.020492	-0.255057	-0.351173	220	170	70
0.121402	0.38091	-0.002837	220	170	70
0.43779	0.105614	-0.055639	220	170	70
-0.058711	-0.098968	-0.010426	220	170	70
-0.057102	0.115419	-0.647129	220	170	70
0.270289	-0.468403	-0.169216	220	170	70
0.031496	-0.045742	-0.088899	220	170	70
-0.185563	-0.097635	0.256925	220	170	70
-0.070499	0.010258	0.355199	220	170	70
-0.060799	0.127615	-0.595003	220	170	70
-0.04673	-0.087711	0.46758	220	170	70
-0.184743	-0.08834	0.442571	220	170	70
0.03275	0.006608	-0.224861	220	170	70
-0.129278	-0.150288	0.459069	220	170	70
0.560251	-0.09511	-0.144513	220	170	70
-0.257297	0.003726	0.525882	220	170	70
-0.102323	0.042296	0.047727	220	170	70
-0.241767	0.063299	-0.215384	220	170	70
0.035805	0.117176	0.309189	220	170	70
0.125242	-0.625264	-0.287571	220	170	70
0.408711	0.121631	-0.014739	220	170	70
0.065647	-0.096823	-0.230056	220	170	70
0.038591	0.21276	0.178986	220	170	70
-0.00296	-0.412363	-0.241346	220	170	70
-0.195998	0.16707	0.466094	220	170	70
0.177019	-0.412949	-0.135994	220	170	70
0.272184	0.552733	-0.134963	220	170	70
0.006832	-0.421308	-0.324565	220	170	70
0.030273	-0.306629	0.134821	220	170	70
0.009281	0.327934	0.17929	220	170	70
-0.083316	0.115955	-0.460067	220	170	70
-0.022577	-0.512183	0.172975	220	170	70
-0.049777	-0.624979	-0.12981	220	170	70
0.119856	-0.196361	0.206827	220	170	70
-0.083178	0.169686	0.2855	220	170	70
0.2545	-0.521895	-0.175259	220	170	70
-0.269257	0.011372	0.316659	220	170	70
-0.147679	-0.095453	0.18678	220	170	70
0.028589	0.012097	0.253536	220	170	70
-0.31631	-0.090203	0.436665	220	170	70
-0.277894	-0.03165	-0.020606	220	170	70
-0.244355	0.175735	0.089328	220	170	70
0.426792	0.003135	-0.098096	220	170	70
-0.266913	-0.09435	0.072498	220	170	70
-0.058545	-0.148751	-0.259778	220	170	70
-0.389726	-0.268171	0.120533	220	170	70
0.081309	0.178189	0.096578	220	170	70
-0.149053	0.266574	-0.3188	220	170	70
0.083456	-0.205861	-0.052081	220	170	70
0.022254	-0.001376	-0.394184	220	170	70
-0.22879	-0.400972	0.192276	220	170	70
0.256167	-0.518178	-0.190778	220	170	70
-0.255815	0.061065	0.221986	220	170	70
0.047139	-0.139109	-0.322807	220	170	70
0.12092	-0.254761	0.010298	220	170	70
0.450483	0.583918	-0.235529	220	170	70
-0.207477	0.269877	0.316411	220	170	70
-0.407171	-0.202031	-0.061967	220	170	70
-0.134917	0.149305	0.456954	220	170	70
-0.349314	-0.044703	0.429459	220	170	70
-0.461027	-0.10368	-0.254428	220	170	70
0.054216	0.120585	-0.467159	220	170	70
0.136335	-0.253441	-0.220853	220	170	70
-0.132521	0.073483	0.17967	220	170	70
0.405401	-0.405823	-0.296023	220	170	70
0.473372	0.211316	-0.104417	220	170	70
-0.226503	-0.308393	0.438364	220	170	70
-0.368515	0.168188	0.361735	220	170	70
0.168012	0.222222	-0.077124	220	170	70
