-0.066895	0.067661	-0.691744	220	170	70
0.15922	-0.158273	0.133218	220	170	70
0.054577	0.406961	0.144472	220	170	70
0.07242	0.055805	-0.015727	220	170	70
-0.275369	0.128911	-0.369364	220	170	70
-0.427339	-0.240305	-0.443609	220	170	70
0.017168	0.544975	0.08942	220	170	70
-0.163739	-0.395278	0.103291	220	170	70
0.423935	-0.454837	0.08888	220	170	70
-0.130563	0.233574	-0.222929	220	170	70
-0.293201	-0.121272	0.270219	220	170	70
0.43241	0.009826	-0.230147	220	170	70
0.484986	-0.243627	-0.389115	220	170	70
0.42409	0.072055	-0.23154	220	170	70
-0.023435	-0.039214	0.425238	220	170	70
-0.212046	0.327503	0.351469	220	170	70
-0.156446	-0.443524	-0.437623	220	170	70
-0.327378	-0.279944	0.264119	220	170	70
0.145974	-0.13052	-0.08691	220	170	70
-0.362099	-0.105186	-0.472407	220	170	70
0.424304	0.229962	-0.057447	220	170	70
0.411438	-0.175355	-0.011776	220	170	70
0.349161	0.198865	-0.078056	220	170	70
0.327078	-0.134584	-0.118972	220	170	70
-0.199799	0.171136	-0.365074	220	170	70
-0.026732	0.08548	-0.819364	220	170	70
-0.278504	-0.013656	0.269536	220	170	70
-0.017281	-0.372439	-0.231381	220	170	70
0.0143	0.078673	-0.460016	220	170	70
0.452933	-0.585975	0.022071	220	170	70
-0.195294	-0.261548	-0.377886	220	170	70
-0.130638	-0.126794	-0.437511	220	170	70
0.12431	0.384574	-0.167795	220	170	70
0.194054	-0.264023	-0.281246	220	170	70
0.181311	-0.031626	-0.160421	220	170	70
-0.138187	-0.465353	-0.456317	220	170	70
0.112875	-0.226773	-0.470139	220	170	70
-0.271809	0.259553	0.056484	220	170	70
0.012346	0.265813	0.299363	220	170	70
-0.20039	-0.223292	-0.043144	220	170	70
0.355243	-0.27448	-0.12357	220	170	70
-0.19168	0.421689	0.247816	220	170	70
0.211848	-0.268603	-0.280136	220	170	70
-0.108623	-0.008241	0.472053	220	170	70
-0.39515	-0.331674	0.053402	220	170	70
0.317549	-0.278234	-0.148094	220	170	70
-0.236614	0.305668	0.39253	220	170	70
0.095263	-0.507435	-0.295972	220	170	70
-0.326707	0.235786	0.264378	220	170	70
-0.066166	-0.452466	0.073865	220	170	70
-0.011989	-0.366175	0.126763	220	170	70
-0.225606	0.318583	0.357001	220	170	70
-0.154919	0.316858	-0.229352	220	170	70
0.329692	0.303285	-0.231411	220	170	70
0.097619	0.306768	0.12962	220	170	70
-0.076925	-0.080401	0.434316	220	170	70
-0.178793	0.12111	0.362495	220	170	70
0.086785	0.060442	0.001172	220	170	70
-0.133013	-0.439534	0.177594	220	170	70
-0.444171	-0.261753	-0.424169	220	170	70
-0.067036	-0.426649	0.289969	220	170	70
-0.242315	0.280554	-0.297624	220	170	70
-0.36394	-0.250788	-0.449888	220	170	70
0.407503	-0.452957	-0.252469	220	170	70
0.047426	-0.058227	-0.288561	220	170	70
0.351691	-0.507792	-0.035784	220	170	70
-0.143629	-0.233233	-0.140828	220	170	70
-0.012753	-0.064567	0.421841	220	170	70
-0.269742	-0.102313	0.182143	220	170	70
0.141938	-0.01841	-0.161561	220	170	70
0.075493	-0.136415	-0.580776	220	170	70
0.541071	-0.23074	0.031591	220	170	70
-0.057156	0.076665	-0.729017	220	170	70
0.419624	-0.455214	-0.180542	220	170	70
-0.191175	-0.246225	0.065323	220	170	70
-0.084897	0.337888	0.28556	220	170	70
-0.114154	-0.265034	-0.196595	220	170	70
-0.460676	-0.001359	-0.011577	220	170	70
-0.060934	0.561397	0.009287	220	170	70
0.051122	0.241649	0.289499	220	170	70
-0.447695	-0.037978	0.227329	220	170	70
-0.530453	-0.237743	-0.459243	220	170	70
-0.043729	0.281214	0.3953	220	170	70
-0.361772	-0.306485	0.05719	220	170	70
0.113476	0.015798	-0.59863	220	170	70
0.218938	-0.175275	0.100782	220	170	70
0.03981	-0.061949	-0.671245	220	170	70
0.429984	-0.502926	-0.020907	220	170	70
0.442129	-0.473575	-0.050425	220	170	70
-0.004728	-0.478689	0.088638	220	170	70
-0.42935	-0.240859	-0.416551	220	170	70
-0.038996	-0.049712	0.43924	220	170	70
0.205899	0.256512	-0.112684	220	170	70
-0.334086	-0.233489	0.173022	220	170	70
0.187326	0.149299	0.215914	220	170	70
-0.172469	-0.120732	0.274636	220	170	70
0.061503	-0.253166	0.142337	220	170	70
0.012941	-0.039461	-0.375115	220	170	70
-0.092755	-0.178377	-0.079228	220	170	70
-0.184373	0.460798	-0.339234	220	170	70
-0.045206	0.043488	-0.882082	220	170	70
-0.228474	0.483692	-0.444306	220	170	70
-0.13139	-0.007693	-0.098876	220	170	70
-0.212035	-0.171326	0.249479	220	170	70
0.310742	0.302047	-0.221831	220	170	70
-0.444171	-0.261753	-0.424169	220	170	70
0.135993	-0.148871	-0.252582	220	170	70
-0.386091	-0.168726	0.053937	220	170	70
0.335187	-0.502444	-0.035318	220	170	70
-0.361375	-0.151866	-0.391614	220	170	70
-0.13223	-0.223806	-0.499239	220	170	70
-0.076811	0.416413	0.127572	220	170	70
0.120945	0.333709	0.098455	220	170	70
-0.078256	-0.304653	0.003797	220	170	70
0.099708	0.05498	-0.124187	220	170	70
-0.352962	-0.298843	0.039869	220	170	70
0.013168	-0.463585	-0.280114	220	170	70
0.394153	-0.509996	-0.036814	220	170	70
0.233101	-0.301973	-0.009213	220	170	70
-0.039424	0.088165	-0.190154	220	170	70
-0.168886	0.473498	-0.301844	220	170	70
-0.036205	0.160091	-0.430543	220	170	70
-0.113194	0.227262	0.194869	220	170	70
-0.012962	0.059244	-0.95863	220	170	70
-0.197954	-0.011684	0.322804	220	170	70
-0.282507	-0.177425	-0.33065	220	170	70
0.104101	-0.22364	-0.470097	220	170	70
0.117806	0.081137	0.047348	220	170	70
0.529386	-0.274132	0.015067	220	170	70
0.062845	0.275171	0.070406	220	170	70
-0.17369	-0.051766	0.327866	220	170	70
-0.035973	0.296555	-0.431752	220	170	70
-0.116718	-0.458527	0.060708	220	170	70
-0.242127	-0.163107	0.243133	220	170	70
0.012435	0.193426	0.391345	220	170	70
-0.442133	-0.342996	0.079534	220	170	70
-0.086838	-0.302228	-0.093868	220	170	70
0.141018	0.078576	-0.075594	220	170	70
-0.175572	-0.018308	0.308641	220	170	70
0.121416	-0.010248	-0.161959	220	170	70
0.316104	0.091636	-0.192565	220	170	70
-0.210058	-0.21393	-0.086473	220	170	70
-0.476339	0.024783	-0.047757	220	170	70
-0.073753	-0.054144	-0.154877	220	170	70
0.001951	0.012429	-0.435513	220	170	70
0.307857	-0.428782	-0.081173	220	170	70
-0.088449	-0.114151	-0.128126	220	170	70
-0.150942	0.335234	0.396135	220	170	70
-0.001795	0.323861	0.421112	220	170	70
0.175187	-0.171422	0.099911	220	170	70
0.088526	0.176652	-0.080379	220	170	70
0.043435	0.00306	-0.16586	220	170	70
-0.119289	-0.43331	0.181453	220	170	70
0.196433	-0.16956	0.081646	220	170	70
-0.007254	0.040766	-0.876779	220	170	70
-0.154569	0.358464	-0.298413	220	170	70
0.056749	0.017913	-0.136366	220	170	70
0.019666	0.027249	0.134116	220	170	70
-0.246174	-0.305678	-0.141775	220	170	70
0.004979	-0.139609	-0.463904	220	170	70
0.200043	-0.344653	0.234669	220	170	70
-0.317977	-0.285121	0.266115	220	170	70
-0.065274	-0.116978	0.223509	220	170	70
0.350469	0.253529	0.012413	220	170	70
-0.335638	-0.116214	0.137145	220	170	70
-0.35247	0.030663	0.279201	220	170	70
0.277286	-0.599863	0.020172	220	170	70
0.147747	0.137495	-0.104849	220	170	70
-0.095179	0.256002	0.185813	220	170	70
0.032367	0.292134	0.431759	220	170	70
-0.484348	0.016597	-0.00288	220	170	70
-0.225356	-0.518383	0.105017	220	170	70
-0.008594	0.478781	0.119824	220	170	70
0.30688	-0.449176	0.0883	220	170	70
-0.022143	0.088288	-0.073236	220	170	70
-0.114869	-0.398043	0.316177	220	170	70
0.032885	-0.241123	-0.328853	220	170	70
0.040598	-0.228711	0.30084	220	170	70
-0.327384	-0.20317	0.148487	220	170	70
-0.173876	-0.399267	0.039848	220	170	70
-0.163469	-0.431671	0.28928	220	170	70
0.39627	0.257608	-0.021047	220	170	70
-0.172843	0.356896	0.281529	220	170	70
0.0408	-0.393742	0.203845	220	170	70
-0.332974	-0.211232	0.152173	220	170	70
0.102072	-0.600991	-0.07284	220	170	70
-0.223228	0.332927	0.193062	220	170	70
0.042237	0.016914	-0.006844	220	170	70
-0.406778	-0.320432	0.08903	220	170	70
-0.190171	0.173071	-0.373817	220	170	70
0.349527	-0.273457	-0.448959	220	170	70
-0.330689	-0.073149	0.142117	220	170	70
-0.053473	-0.080478	-0.373777	220	170	70
-0.412076	-0.302162	0.084892	220	170	70
-0.266811	-0.376794	0.210375	220	170	70
-0.23017	-0.116706	-0.397521	220	170	70
-0.086061	-0.079341	0.417652	220	170	70
0.234735	0.106347	0.106651	220	170	70
-0.464174	-0.31361	0.096834	220	170	70
-0.102088	0.267577	0.228703	220	170	70
-0.293097	0.191591	0.292061	220	170	70
0.340387	-0.373207	-0.39461	220	170	70
-0.111169	0.006832	0.121495	220	170	70
0.475721	-0.162803	0.031587	220	170	70
-0.066663	0.436639	0.15056	220	170	70
-0.101865	0.268152	0.255136	220	170	70
-0.094621	0.038168	-0.547427	220	170	70
0.425627	-0.407038	-0.181986	220	170	70
0.186878	-0.251057	-0.370451	220	170	70
0.164055	0.122932	0.148145	220	170	70
-0.297281	0.255744	0.177934	220	170	70
-0.158839	-0.104544	0.38131	220	170	70
-0.073315	-0.29093	-0.008348	220	170	70
-0.062783	0.296312	0.14024	220	170	70
-0.193949	0.240428	0.019444	220	170	70
-0.090014	0.467179	-0.071543	220	170	70
0.09992	0.003195	-0.159515	220	170	70
-0.130861	0.186344	0.149399	220	170	70
0.190628	-0.210217	0.167723	220	170	70
0.112187	0.093325	0.29173	220	170	70
-0.092029	-0.113232	-0.123483	220	170	70
0.028378	0.079091	-0.513801	220	170	70
-0.261947	0.269489	0.057601	220	170	70
-0.315238	-0.243034	0.212962	220	170	70
0.40439	-0.424369	-0.012183	220	170	70
-0.017246	0.084196	-0.791413	220	170	70
-0.036301	0.014943	-0.485261	220	170	70
-0.120309	-0.14238	-0.406996	220	170	70
-0.058328	0.068024	0.363804	220	170	70
-0.177234	-0.260518	-0.278095	220	170	70
0.304451	-0.557337	-0.003139	220	170	70
0.297667	-0.557353	-0.006532	220	170	70
0.026115	0.201709	0.004613	220	170	70
0.10601	0.076111	0.281518	220	170	70
-0.142944	-0.280485	0.25884	220	170	70
-0.169217	-0.428324	0.289837	220	170	70
-0.049532	0.068111	0.417472	220	170	70
0.188055	-0.244882	-0.339114	220	170	70
0.273864	-0.486946	0.037889	220	170	70
0.447304	0.229156	-0.024926	220	170	70
-0.319273	-0.174416	0.140647	220	170	70
-0.32794	0.166208	-0.427247	220	170	70
0.028876	-0.131387	0.27103	220	170	70
-0.320785	-0.043327	0.209396	220	170	70
0.351933	0.25467	0.007016	220	170	70
-0.002362	0.018211	0.378545	220	170	70
0.160538	0.333487	-0.179467	220	170	70
0.386759	0.266016	-0.007206	220	170	70
0.056641	0.399076	0.194026	220	170	70
0.330766	-0.426542	0.055023	220	170	70
-0.047714	0.277473	-0.431773	220	170	70
0.305954	-0.445217	0.088312	220	170	70
0.244596	0.407436	0.143465	220	170	70
0.334028	-0.385267	-0.285285	220	170	70
0.204056	0.247301	0.303107	220	170	70
0.322623	0.233858	-0.094503	220	170	70
0.040088	-0.162289	-0.466861	220	170	70
0.050488	0.076025	0.43662	220	170	70
-0.155337	-0.425473	0.34489	220	170	70
-0.122302	-0.270872	-0.296112	220	170	70
-0.085609	-0.273856	-0.229161	220	170	70
0.008739	0.088235	-0.460241	220	170	70
-0.067149	0.279176	0.417255	220	170	70
0.257613	-0.513106	0.063779	220	170	70
-0.085191	0.343714	0.44973	220	170	70
-0.035388	-0.02287	-0.30666	220	170	70
0.428437	0.238369	-0.039346	220	170	70
-0.15315	-0.409507	0.255105	220	170	70
-0.080826	0.559022	0.050503	220	170	70
-0.103459	-0.51954	-0.473136	220	170	70
-0.45711	-0.270138	0.098645	220	170	70
0.063233	0.132115	0.286037	220	170	70
0.141226	0.091056	0.085303	220	170	70
0.269151	0.389896	0.164003	220	170	70
-0.29781	0.285332	0.254697	220	170	70
-0.309813	-0.153369	0.195053	220	170	70
0.259233	-0.306383	0.267671	220	170	70
0.22959	0.135887	0.184355	220	170	70
-0.045135	0.035726	-0.73572	220	170	70
-0.406018	-0.312007	0.085228	220	170	70
0.082824	0.307224	0.072098	220	170	70
0.273851	0.021336	-0.190584	220	170	70
0.008305	0.560256	0.068769	220	170	70
-0.035449	0.035185	-0.853742	220	170	70
-0.038473	0.261746	0.221149	220	170	70
0.162918	0.024675	-0.156287	220	170	70
0.028356	0.409596	0.113149	220	170	70
-0.187438	0.152587	-0.407326	220	170	70
-0.003913	0.039902	-0.801651	220	170	70
0.298155	-0.44472	-0.347627	220	170	70
-0.17261	0.479361	-0.296218	220	170	70
-0.088021	0.05396	0.322058	220	170	70
-0.202526	-0.071712	-0.423793	220	170	70
0.417667	-0.455681	0.175798	220	170	70
0.315681	-0.010033	-0.189188	220	170	70
0.177894	-0.075465	-0.03809	220	170	70
-0.368287	-0.202793	-0.445055	220	170	70
0.046932	-0.172839	-0.467162	220	170	70
-0.143806	-0.079131	0.213206	220	170	70
-0.114876	0.224172	0.190618	220	170	70
0.411271	-0.17964	-0.372993	220	170	70
0.260151	-0.511688	0.065185	220	170	70
-0.364858	-0.420062	0.107876	220	170	70
-0.486109	-0.268216	-0.475955	220	170	70
0.066756	-0.030538	-0.201251	220	170	70
-0.133974	0.452969	-0.16224	220	170	70
-0.114102	0.323589	0.454523	220	170	70
-0.022968	0.046253	-0.486132	220	170	70
0.321113	-0.598834	-0.182444	220	170	70
-0.14836	-0.032223	0.295397	220	170	70
0.04745	-0.036579	0.368494	220	170	70
-0.040793	-0.421161	0.305656	220	170	70
-0.43639	-0.281079	0.081939	220	170	70
0.350563	-0.37349	-0.399151	220	170	70
-0.268896	-0.054316	-0.030786	220	170	70
-0.015749	0.37102	0.060769	220	170	70
0.157843	0.323904	0.287038	220	170	70
-0.361441	-0.308979	0.067001	220	170	70
0.437407	-0.057678	-0.022915	220	170	70
-0.010124	0.040363	-0.517625	220	170	70
-0.163406	-0.211298	-0.511598	220	170	70
0.473567	-0.459381	0.053479	220	170	70
-0.310821	0.134447	0.046805	220	170	70
0.244727	-0.31766	0.254361	220	170	70
-0.335118	-0.340918	0.136836	220	170	70
0.16942	-0.126635	-0.165951	220	170	70
-0.254384	-0.292338	0.169871	220	170	70
-0.347424	-0.310795	0.091465	220	170	70
-0.246258	0.310752	0.38167	220	170	70
-0.170559	-0.243076	-0.141315	220	170	70
-0.003155	-0.44614	-0.061351	220	170	70
-0.015171	0.029712	0.607859	220	170	70
-0.038958	0.169858	0.059997	220	170	70
-0.179107	0.22419	-0.058083	220	170	70
-0.210999	0.492201	-0.443776	220	170	70
0.320901	0.079464	-0.197413	220	170	70
0.053426	-0.004764	-0.69277	220	170	70
-0.318207	0.089027	0.285297	220	170	70
0.039871	0.281219	0.468743	220	170	70
-0.026154	0.394624	0.077046	220	170	70
-0.048286	0.105515	-0.947699	220	170	70
-0.081456	0.041181	-0.105672	220	170	70
0.243796	-0.324079	-0.281952	220	170	70
-0.125921	0.232717	-0.133617	220	170	70
-0.217399	-0.250111	-0.253026	220	170	70
-0.176422	0.148099	-0.435608	220	170	70
0.368328	-0.561507	0.026421	220	170	70
-0.231933	-0.364759	0.232636	220	170	70
-0.164882	0.474289	-0.283137	220	170	70
-0.469851	0.038985	-0.04746	220	170	70
0.099453	0.317238	-0.328158	220	170	70
0.148315	-0.286428	-0.279051	220	170	70
0.031972	-0.020041	-0.40884	220	170	70
-0.192578	0.249157	0.031584	220	170	70
0.050709	-0.245478	-0.328965	220	170	70
0.237411	0.164891	0.200237	220	170	70
-0.131879	0.224576	-0.15042	220	170	70
0.404663	-0.457722	-0.084138	220	170	70
0.171344	-0.126101	-0.197647	220	170	70
0.286913	0.071612	0.141262	220	170	70
0.23691	-0.443598	-0.138827	220	170	70
0.02609	0.026103	0.195032	220	170	70
-0.125195	-0.474375	0.058396	220	170	70
0.249023	0.153883	0.111445	220	170	70
-0.408146	-0.204705	0.098495	220	170	70
0.324527	-0.545917	0.060467	220	170	70
-0.11183	0.30943	0.0476	220	170	70
-0.024177	-0.158309	-0.408242	220	170	70
-0.104559	-0.339148	0.054926	220	170	70
0.032798	-0.02851	-0.669346	220	170	70
-0.331902	-0.280271	0.262702	220	170	70
0.372345	-0.138172	-0.076641	220	170	70
0.089369	-0.46839	-0.288942	220	170	70
0.045373	0.01509	0.031348	220	170	70
-0.009926	0.0556	-0.486869	220	170	70
0.089364	-0.467823	-0.290076	220	170	70
0.145188	-0.145465	-0.231924	220	170	70
-0.122108	0.260814	0.013745	220	170	70
-0.046523	0.218369	-0.47241	220	170	70
-0.330689	-0.073149	0.142117	220	170	70
-0.04946	0.055881	-0.916876	220	170	70
0.040678	-0.047978	-0.340262	220	170	70
-0.135044	0.207135	0.448017	220	170	70
-0.131026	0.281062	0.011987	220	170	70
-0.497378	-0.259766	-0.455346	220	170	70
-0.311975	0.228284	0.288348	220	170	70
0.496264	0.123467	-0.27665	220	170	70
0.42718	-0.515312	-0.053345	220	170	70
-0.265109	-0.303127	0.163971	220	170	70
-0.099585	0.206177	0.193202	220	170	70
-0.433239	-0.058633	0.245415	220	170	70
-0.075403	-0.215745	-0.043002	220	170	70
-0.417405	-0.232274	-0.464634	220	170	70
-0.17301	-0.069076	0.107132	220	170	70
-0.069153	0.221897	-0.481218	220	170	70
0.246749	0.396535	0.199232	220	170	70
-0.201407	0.242184	0.332551	220	170	70
0.362987	-0.431296	-0.259596	220	170	70
0.437648	0.241262	-0.043352	220	170	70
-0.079252	0.387187	0.020417	220	170	70
0.036702	0.02496	0.228688	220	170	70
-0.346315	-0.273537	0.093481	220	170	70
0.051998	-0.122548	-0.596201	220	170	70
0.155403	-0.088639	-0.564875	220	170	70
-0.379342	-0.152932	0.052011	220	170	70
-0.352954	-0.089996	-0.444663	220	170	70
0.14187	0.104116	0.090542	220	170	70
-0.010543	-0.173461	-0.230118	220	170	70
0.147973	0.262227	-0.05582	220	170	70
-0.048427	-0.035218	-0.287035	220	170	70
-0.169365	-0.122359	0.36747	220	170	70
-0.051307	-0.095545	0.533292	220	170	70
-0.227321	-0.143793	0.16825	220	170	70
0.047102	0.252042	0.306854	220	170	70
0.036798	-0.556402	-0.27964	220	170	70
0.045329	0.427349	0.160458	220	170	70
0.004821	-0.333722	-0.230054	220	170	70
-0.185057	-0.147109	0.194705	220	170	70
-0.115252	0.21937	0.248588	220	170	70
0.424792	-0.006024	-0.021409	220	170	70
0.267299	0.138099	0.108185	220	170	70
-0.241733	-0.304516	-0.121711	220	170	70
-0.003742	0.078573	-0.824387	220	170	70
0.087391	-0.180578	-0.537353	220	170	70
-0.039845	0.078306	-0.662362	220	170	70
-0.187719	0.009	-0.162238	220	170	70
-0.176973	0.460951	-0.302377	220	170	70
0.047486	-0.166033	-0.471407	220	170	70
-0.141588	0.324816	0.2605	220	170	70
-0.087181	-0.241046	0.10227	220	170	70
-0.179484	-0.06476	-0.438228	220	170	70
-0.055456	0.088095	-0.657599	220	170	70
-0.029561	-0.025529	-0.339346	220	170	70
-0.12958	-0.115518	-0.251534	220	170	70
-0.391662	-0.229268	0.178257	220	170	70
-0.18062	0.480919	-0.339578	220	170	70
0.40383	-0.415199	0.029052	220	170	70
-0.090488	0.074899	-0.158407	220	170	70
-0.13455	-0.033243	0.081284	220	170	70
-0.095806	0.342863	-0.050054	220	170	70
-0.223598	0.198506	0.347688	220	170	70
-0.231304	0.256193	-0.039392	220	170	70
-0.167126	0.111305	-0.527323	220	170	70
0.398625	-0.199902	-0.442786	220	170	70
0.373788	-0.433941	0.092326	220	170	70
-0.157292	-0.442437	-0.467385	220	170	70
-0.048672	0.452356	0.055609	220	170	70
-0.045108	0.029685	-0.642409	220	170	70
-0.069149	0.445419	-0.072616	220	170	70
-0.072201	0.449783	-0.073744	220	170	70
-0.211037	-0.400016	0.224877	220	170	70
-0.237994	-0.336852	0.205505	220	170	70
-0.060538	0.025983	0.067046	220	170	70
0.05398	0.391305	-0.176222	220	170	70
0.144859	-0.235613	-0.428209	220	170	70
0.170763	0.360619	0.34332	220	170	70
0.318291	-0.553616	-0.004344	220	170	70
0.2967	0.108171	-0.104919	220	170	70
-0.198415	-0.02094	0.30767	220	170	70
-0.253743	-0.198085	-0.297924	220	170	70
-0.264783	-0.194917	-0.378288	220	170	70
-0.048997	-0.10565	0.242818	220	170	70
-0.035331	0.030402	-0.64341	220	170	70
-0.152489	0.00135	-0.509833	220	170	70
0.06574	0.010434	-0.161575	220	170	70
-0.356219	-0.133616	0.050525	220	170	70
0.395621	-0.465701	0.177141	220	170	70
-0.091413	0.326979	0.467776	220	170	70
-0.074313	-0.071776	0.533935	220	170	70
-0.427564	-0.23752	-0.474675	220	170	70
-0.050281	0.21515	0.262516	220	170	70
-0.068641	0.223903	0.248569	220	170	70
0.252191	-0.567727	-0.053906	220	170	70
-0.163449	-0.394972	0.033936	220	170	70
0.466869	-0.202212	-0.008696	220	170	70
-0.281143	0.125895	0.089988	220	170	70
0.118737	0.25956	-0.366761	220	170	70
0.139783	0.253363	-0.055476	220	170	70
0.410628	-0.424876	0.0329	220	170	70
0.163651	0.276365	0.322319	220	170	70
0.066566	-0.07832	0.086364	220	170	70
-0.416109	-0.209426	0.018593	220	170	70
-0.017666	0.275074	0.397065	220	170	70
0.300396	-0.463763	0.053332	220	170	70
-0.069349	-0.291491	-0.012028	220	170	70
-0.068931	-0.236373	-0.021909	220	170	70
-0.166618	-0.153904	-0.058139	220	170	70
-0.462403	-0.260575	-0.425294	220	170	70
0.036114	-0.034732	-0.259329	220	170	70
-0.027172	0.140179	-0.460859	220	170	70
0.36224	-0.39445	-0.023374	220	170	70
0.029966	0.189349	-0.4521	220	170	70
-0.10974	0.227392	-0.11935	220	170	70
-0.321368	-0.222085	0.10347	220	170	70
0.332989	-0.542772	0.047956	220	170	70
-0.067331	-0.062152	-0.157883	220	170	70
-0.409519	-0.182221	-0.415943	220	170	70
0.224872	0.00021	-0.116857	220	170	70
0.044091	0.015862	-0.137951	220	170	70
0.095538	0.062503	0.025268	220	170	70
0.120151	0.192863	0.313437	220	170	70
0.29673	-0.275821	-0.417445	220	170	70
-0.098539	0.490013	0.096562	220	170	70
-0.054898	-0.559466	0.099729	220	170	70
-0.296488	-0.006274	-0.043981	220	170	70
-0.022002	0.066181	-0.161453	220	170	70
-0.433926	-0.064433	0.223638	220	170	70
0.090599	0.071746	0.00729	220	170	70
0.230869	-0.011595	-0.061689	220	170	70
0.020507	0.007442	0.053609	220	170	70
0.016164	-0.134345	0.273667	220	170	70
0.082918	-0.531189	-0.258551	220	170	70
-0.007744	0.078606	-0.79235	220	170	70
0.040694	0.188919	-0.033647	220	170	70
-0.354204	-0.233964	0.213684	220	170	70
-0.066009	0.445546	-0.043489	220	170	70
0.088769	-0.165239	-0.533	220	170	70
-0.076147	0.385234	0.029789	220	170	70
0.164174	-0.293664	0.311383	220	170	70
0.476426	-0.228623	0.007582	220	170	70
0.056833	-0.017724	0.089077	220	170	70
-0.047091	0.071689	0.264277	220	170	70
-0.144079	-0.064686	0.024318	220	170	70
-0.222507	0.227723	-0.336002	220	170	70
-0.483211	-0.257974	-0.48397	220	170	70
0.060328	0.00236	0.3594	220	170	70
-0.314929	-0.415711	0.131411	220	170	70
-0.056201	0.39811	0.198798	220	170	70
-0.196354	-0.243554	-0.251091	220	170	70
-0.023415	-0.007143	0.547891	220	170	70
0.417972	-0.431322	0.072806	220	170	70
0.43086	-0.421293	0.147656	220	170	70
0.317264	-0.548142	0.11217	220	170	70
-0.154505	-0.078439	0.021839	220	170	70
-0.327384	-0.20317	0.148487	220	170	70
0.351698	0.259188	-0.096797	220	170	70
-0.069669	0.46439	0.053568	220	170	70
0.264565	-0.334512	-0.019105	220	170	70
-0.054181	0.065583	-0.875051	220	170	70
0.138584	-0.12602	-0.43862	220	170	70
0.32939	-0.660902	-0.141648	220	170	70
0.235174	0.408427	0.143523	220	170	70
0.427422	-0.048458	-0.018249	220	170	70
0.012077	0.11918	-0.457015	220	170	70
0.352203	-0.185879	-0.478498	220	170	70
0.058865	0.175756	-0.436315	220	170	70
0.162526	0.267693	0.278952	220	170	70
-0.338813	-0.188826	0.157615	220	170	70
-0.027515	0.117139	-0.007729	220	170	70
-0.01168	0.049722	-0.918819	220	170	70
-0.395738	-0.191191	-0.464831	220	170	70
0.16218	0.311314	0.343052	220	170	70
-0.08614	-0.216711	-0.159439	220	170	70
-0.423707	-0.002359	-0.018021	220	170	70
-0.134985	0.064186	0.417919	220	170	70
-0.406714	-0.306309	0.111823	220	170	70
-0.040793	-0.421161	0.305656	220	170	70
0.163614	-0.050871	-0.150955	220	170	70
0.48716	-0.211419	0.058288	220	170	70
0.129871	0.101207	-0.095353	220	170	70
0.001034	-0.442119	-0.053412	220	170	70
-0.189109	-0.508039	0.086889	220	170	70
-0.226863	0.426185	-0.453807	220	170	70
-0.09481	0.091591	-0.609762	220	170	70
0.506691	-0.151205	0.02976	220	170	70
-0.236276	0.432482	-0.475394	220	170	70
-0.208754	0.165627	0.344361	220	170	70
0.252879	0.397082	0.157587	220	170	70
-0.072443	0.288573	-0.481945	220	170	70
0.089121	0.132595	0.300151	220	170	70
-0.317225	0.080591	0.090536	220	170	70
0.335655	-0.671718	-0.162633	220	170	70
-0.35787	0.097205	0.172337	220	170	70
-0.23924	0.478997	-0.477462	220	170	70
-0.333129	-0.247702	0.040749	220	170	70
0.112187	0.093325	0.29173	220	170	70
-0.081087	0.456228	-0.071794	220	170	70
-0.304872	-0.228491	-0.365767	220	170	70
-0.00008	0.489814	0.11848	220	170	70
-0.027189	0.06868	-0.661389	220	170	70
0.121315	-0.240953	-0.447814	220	170	70
0.31347	-0.351797	0.234684	220	170	70
-0.288125	-0.099114	0.103844	220	170	70
0.085173	0.236759	0.364015	220	170	70
-0.149488	0.314651	0.280626	220	170	70
0.268467	-0.504738	0.033322	220	170	70
0.335371	0.088851	-0.228698	220	170	70
-0.118034	0.459915	0.121961	220	170	70
0.404631	-0.165013	-0.037655	220	170	70
-0.192046	-0.080629	0.14212	220	170	70
0.160678	0.349502	0.394511	220	170	70
0.145141	-0.560951	-0.052291	220	170	70
-0.335415	0.1296	0.203719	220	170	70
0.28687	-0.600567	-0.18217	220	170	70
-0.245736	0.302671	-0.087996	220	170	70
0.168536	-0.633804	-0.098322	220	170	70
-0.233727	0.318319	0.28141	220	170	70
-0.198736	-0.124792	0.222019	220	170	70
-0.20883	0.279095	0.05897	220	170	70
0.120686	-0.264212	-0.393085	220	170	70
-0.235616	0.164119	0.175003	220	170	70
0.284293	0.217982	-0.142088	220	170	70
0.010836	0.284372	0.389819	220	170	70
-0.00453	0.05934	-0.484511	220	170	70
-0.275908	0.279129	-0.251312	220	170	70
-0.163482	0.101216	0.45219	220	170	70
-0.03533	0.03039	-0.642274	220	170	70
-0.085226	-0.39995	-0.038352	220	170	70
-0.296928	0.248108	0.291171	220	170	70
0.358924	-0.173914	-0.478456	220	170	70
0.040678	-0.047978	-0.340262	220	170	70
-0.119457	0.469305	0.121697	220	170	70
0.122217	0.086698	0.056585	220	170	70
0.02124	0.395587	0.102103	220	170	70
0.440696	-0.470454	-0.049354	220	170	70
-0.091926	0.330639	0.268819	220	170	70
0.148315	-0.286428	-0.279051	220	170	70
0.196191	-0.354609	0.314805	220	170	70
0.111937	0.089168	0.268807	220	170	70
-0.0927	-0.435277	0.219413	220	170	70
-0.19167	-0.138112	0.346847	220	170	70
0.410948	-0.014238	-0.252034	220	170	70
-0.078433	0.480445	-0.079407	220	170	70
0.364863	0.301574	-0.200111	220	170	70
-0.35787	0.097205	0.172337	220	170	70
-0.23979	0.294204	-0.085716	220	170	70
0.494127	-0.466264	-0.088051	220	170	70
-0.101039	-0.448536	0.198042	220	170	70
0.304835	-0.174317	-0.113171	220	170	70
0.351556	-0.522739	0.043252	220	170	70
-0.146094	-0.425173	0.339452	220	170	70
0.320546	-0.54992	-0.004699	220	170	70
-0.339672	-0.292218	0.259989	220	170	70
0.385956	-0.409238	-0.241569	220	170	70
0.170167	0.143648	0.183215	220	170	70
-0.498044	-0.174217	-0.439045	220	170	70
0.003298	0.052958	-0.658549	220	170	70
-0.006516	0.012901	-0.699197	220	170	70
0.323922	-0.101836	-0.049507	220	170	70
-0.271385	-0.197983	0.161168	220	170	70
0.365803	0.268105	-0.001555	220	170	70
-0.205077	-0.374655	0.221194	220	170	70
0.107221	0.231877	-0.397822	220	170	70
0.335115	-0.496263	-0.043313	220	170	70
0.031049	-0.019469	-0.378201	220	170	70
-0.075397	-0.132506	0.056121	220	170	70
-0.266447	-0.2495	-0.364494	220	170	70
0.186627	0.258396	-0.138639	220	170	70
0.326712	-0.190608	-0.029506	220	170	70
-0.274555	0.029614	0.257059	220	170	70
-0.000795	0.163073	0.343483	220	170	70
-0.012022	-0.179012	-0.394331	220	170	70
-0.017133	0.362903	0.058805	220	170	70
0.04489	-0.016307	0.088511	220	170	70
0.33192	0.27749	-0.16873	220	170	70
0.104084	0.309277	0.158854	220	170	70
-0.125314	-0.138074	0.22172	220	170	70
0.109643	-0.015087	-0.044437	220	170	70
-0.168957	-0.175908	0.227369	220	170	70
-0.054186	-0.029421	-0.255786	220	170	70
0.241876	0.157883	0.200595	220	170	70
0.088629	-0.136028	-0.232756	220	170	70
-0.017811	0.0597	-0.695302	220	170	70
0.139783	0.253363	-0.055476	220	170	70
0.232071	0.408666	0.160256	220	170	70
-0.090444	0.405962	0.187272	220	170	70
-0.41214	-0.28436	0.10495	220	170	70
-0.00685	0.25937	0.278851	220	170	70
0.477649	-0.226116	-0.008707	220	170	70
-0.140771	-0.362052	0.159627	220	170	70
-0.394762	-0.411084	0.096308	220	170	70
0.450205	-0.174418	-0.022146	220	170	70
-0.009016	0.00761	0.054628	220	170	70
0.04873	-0.061488	-0.288112	220	170	70
-0.068226	0.229979	0.16093	220	170	70
-0.205523	-0.08062	-0.423445	220	170	70
-0.344918	0.058736	0.245443	220	170	70
-0.244966	0.134431	0.397072	220	170	70
0.100949	0.015518	-0.617674	220	170	70
-0.086272	-0.252113	-0.445521	220	170	70
0.099099	0.060959	-0.107357	220	170	70
-0.183876	0.233932	0.21593	220	170	70
-0.164466	-0.033564	-0.469346	220	170	70
-0.44689	-0.358627	0.164751	220	170	70
-0.048673	0.255774	0.244396	220	170	70
0.266826	0.386435	0.155242	220	170	70
0.261162	0.302429	-0.220061	220	170	70
-0.199799	0.171136	-0.365074	220	170	70
-0.191057	-0.506317	0.093703	220	170	70
0.01501	-0.019554	-0.691634	220	170	70
-0.025998	0.034455	-0.735772	220	170	70
0.425627	-0.407038	-0.181986	220	170	70
0.264214	-0.139997	0.115511	220	170	70
-0.095179	0.256002	0.185813	220	170	70
-0.251671	0.334233	-0.280026	220	170	70
0.05406	-0.031018	-0.238127	220	170	70
-0.275331	0.246894	0.147282	220	170	70
0.346776	-0.499337	-0.008151	220	170	70
0.035786	-0.052029	-0.237619	220	170	70
-0.037615	0.496084	0.148868	220	170	70
-0.188709	-0.28053	0.006089	220	170	70
-0.178726	-0.059309	0.153762	220	170	70
0.06921	0.310969	0.478891	220	170	70
0.435071	-0.474994	-0.051557	220	170	70
-0.379789	-0.276431	-0.000057	220	170	70
0.087378	-0.199596	-0.395264	220	170	70
0.390823	-0.409533	0.011623	220	170	70
-0.049373	0.065863	-0.824719	220	170	70
-0.064298	-0.044394	-0.192087	220	170	70
-0.409153	-0.128757	-0.509626	220	170	70
-0.045279	0.565528	0.004725	220	170	70
-0.035514	0.037341	-0.697223	220	170	70
0.003661	0.227852	0.498907	220	170	70
0.498568	-0.268564	-0.403294	220	170	70
0.099708	0.05498	-0.124187	220	170	70
-0.237761	-0.223477	-0.0236	220	170	70
-0.239216	0.134969	0.101187	220	170	70
-0.131895	-0.461961	0.23194	220	170	70
0.023872	0.011201	0.071676	220	170	70
0.021849	0.014051	0.076236	220	170	70
0.285049	0.052338	-0.165845	220	170	70
-0.253862	-0.200127	0.203952	220	170	70
0.038211	-0.027128	-0.28911	220	170	70
-0.03208	-0.428435	-0.078208	220	170	70
-0.036092	-0.06311	0.442645	220	170	70
-0.49544	-0.262301	-0.451044	220	170	70
-0.114995	-0.236469	-0.053009	220	170	70
-0.230033	0.305394	-0.056083	220	170	70
-0.340843	0.068077	0.246164	220	170	70
-0.212338	-0.394236	0.114449	220	170	70
-0.137289	-0.240524	-0.193917	220	170	70
-0.265565	-0.016659	0.140213	220	170	70
0.395995	-0.28387	0.04738	220	170	70
0.215041	-0.420195	0.043519	220	170	70
0.327078	-0.134584	-0.118972	220	170	70
0.023835	-0.348996	0.196563	220	170	70
0.198836	-0.330322	0.293308	220	170	70
-0.447087	0.034905	-0.046755	220	170	70
0.261578	-0.618953	-0.056888	220	170	70
0.033579	-0.520745	-0.310865	220	170	70
-0.197967	-0.123882	0.140831	220	170	70
-0.13323	0.019662	-0.510852	220	170	70
0.280399	0.048516	-0.190787	220	170	70
-0.327378	-0.279944	0.264119	220	170	70
-0.070176	-0.22579	-0.043502	220	170	70
0.421456	-0.164974	0.037495	220	170	70
-0.362006	-0.159457	0.189831	220	170	70
0.230255	0.390399	0.146954	220	170	70
-0.364858	-0.420062	0.107876	220	170	70
0.15744	0.03522	0.3042	220	170	70
0.505672	-0.275132	-0.429355	220	170	70
0.075923	0.270921	-0.060189	220	170	70
0.328434	-0.241749	-0.452429	220	170	70
0.050709	-0.245478	-0.328965	220	170	70
0.036114	-0.034732	-0.259329	220	170	70
-0.030241	-0.217976	0.240318	220	170	70
0.266315	-0.280653	-0.34061	220	170	70
0.368869	-0.543595	0.044627	220	170	70
0.523094	-0.327524	0.031641	220	170	70
-0.187884	0.210319	-0.161957	220	170	70
0.013593	0.177099	0.396401	220	170	70
0.548518	-0.229563	0.028135	220	170	70
-0.177446	0.221041	-0.082727	220	170	70
-0.418155	-0.184008	0.104594	220	170	70
0.347087	-0.152152	-0.039105	220	170	70
-0.213565	-0.044576	0.125105	220	170	70
-0.079766	-0.145278	-0.421661	220	170	70
-0.288398	0.076375	0.049371	220	170	70
-0.410408	0.014854	-0.033164	220	170	70
-0.026257	0.086565	-0.75856	220	170	70
-0.436818	-0.292109	0.057917	220	170	70
-0.338325	-0.274357	0.116149	220	170	70
0.019185	-0.044392	-0.307896	220	170	70
0.444202	-0.583736	0.006206	220	170	70
0.188657	-0.144802	-0.004382	220	170	70
0.022947	0.093064	0.114262	220	170	70
0.44022	-0.420837	0.058486	220	170	70
0.328773	-0.543915	0.070388	220	170	70
0.453192	0.245924	-0.04141	220	170	70
0.100626	0.272037	-0.393693	220	170	70
-0.219941	-0.147106	-0.297429	220	170	70
-0.253728	0.339452	0.375169	220	170	70
0.277754	0.098663	-0.104039	220	170	70
-0.071533	-0.232076	-0.025336	220	170	70
0.009636	0.173276	0.336507	220	170	70
0.444749	-0.00407	-0.38211	220	170	70
-0.328353	-0.135843	0.117121	220	170	70
0.044557	0.305091	0.455169	220	170	70
-0.301376	-0.146964	0.100274	220	170	70
0.013161	-0.412989	-0.458511	220	170	70
0.502116	-0.169949	0.01894	220	170	70
0.375069	-0.427323	-0.290192	220	170	70
-0.012622	-0.439898	-0.080019	220	170	70
0.080673	-0.138116	0.135311	220	170	70
-0.182511	-0.114636	0.275291	220	170	70
-0.00697	0.268696	0.313887	220	170	70
0.219123	-0.439846	-0.153516	220	170	70
0.103218	-0.23006	-0.220336	220	170	70
-0.400957	-0.231885	0.177662	220	170	70
-0.303649	-0.256889	-0.009953	220	170	70
-0.065028	0.415121	0.195548	220	170	70
-0.061937	-0.084894	0.530565	220	170	70
-0.278962	-0.111221	0.180533	220	170	70
-0.289708	0.251573	-0.229527	220	170	70
-0.068931	-0.236373	-0.021909	220	170	70
0.113548	-0.182482	-0.428049	220	170	70
-0.046258	0.271046	0.394714	220	170	70
0.199095	-0.233976	0.206115	220	170	70
-0.114344	0.317011	0.475986	220	170	70
-0.138604	0.247778	-0.278434	220	170	70
-0.057232	0.100512	-0.975569	220	170	70
-0.023936	0.076754	-0.105826	220	170	70
0.062293	0.171104	-0.049037	220	170	70
0.355948	-0.43508	0.135447	220	170	70
0.006699	0.04582	-0.662739	220	170	70
-0.017104	0.031814	-0.46346	220	170	70
-0.132272	0.309252	0.290815	220	170	70
-0.070803	0.064289	0.597424	220	170	70
-0.030666	0.459168	0.094756	220	170	70
-0.111554	0.003144	0.42224	220	170	70
-0.328353	-0.135843	0.117121	220	170	70
-0.059977	-0.208341	-0.419145	220	170	70
0.452116	-0.516118	-0.071941	220	170	70
-0.111344	0.314012	-0.063938	220	170	70
0.057297	0.029748	-0.105424	220	170	70
0.165874	-0.360581	0.334485	220	170	70
0.132324	0.330937	0.302277	220	170	70
0.526493	-0.286593	0.020226	220	170	70
0.392155	-0.520705	-0.053107	220	170	70
0.326785	-0.601135	-0.210774	220	170	70
-0.078606	0.04498	0.593162	220	170	70
0.434165	-0.005853	0.015297	220	170	70
0.390939	-0.5256	-0.282518	220	170	70
0.101739	-0.169618	-0.281283	220	170	70
0.289655	-0.591373	0.036567	220	170	70
0.378075	-0.444728	-0.290955	220	170	70
0.28631	0.226184	-0.142955	220	170	70
-0.034689	0.055691	0.551048	220	170	70
0.010451	0.249209	0.275707	220	170	70
-0.245793	0.164319	0.166476	220	170	70
-0.076784	-0.10946	0.430541	220	170	70
0.221821	0.154607	0.192651	220	170	70
0.045039	0.280699	0.489893	220	170	70
-0.283921	-0.14742	0.048661	220	170	70
0.335625	-0.363832	-0.302063	220	170	70
-0.406747	-0.202396	0.100489	220	170	70
-0.010671	-0.004588	-0.408639	220	170	70
0.118488	0.249577	0.397761	220	170	70
-0.112485	-0.339876	-0.190654	220	170	70
-0.259953	-0.228842	0.215239	220	170	70
-0.374259	0.009455	0.335361	220	170	70
-0.174346	-0.038921	0.325491	220	170	70
0.326866	-0.44101	0.090876	220	170	70
-0.154313	-0.259678	-0.137464	220	170	70
0.303529	-0.535774	-0.005752	220	170	70
0.165164	-0.639209	-0.101724	220	170	70
-0.114617	-0.273006	0.242516	220	170	70
0.279592	-0.111579	0.160129	220	170	70
-0.070044	0.068733	-0.619415	220	170	70
-0.019964	0.049947	-0.641316	220	170	70
0.330145	-0.644762	-0.160919	220	170	70
0.110024	0.204929	0.311047	220	170	70
-0.247566	0.093845	0.148957	220	170	70
-0.053415	0.087059	-0.915849	220	170	70
-0.045375	0.039716	-0.801284	220	170	70
0.314265	-0.427943	0.089876	220	170	70
0.453192	0.245924	-0.04141	220	170	70
-0.284402	-0.218473	-0.145877	220	170	70
0.10601	0.076111	0.281518	220	170	70
0.052063	-0.127995	-0.601106	220	170	70
0.30604	-0.511401	0.087648	220	170	70
0.244596	0.407436	0.143465	220	170	70
-0.105074	0.307532	0.023528	220	170	70
-0.186759	-0.220098	-0.057652	220	170	70
0.18545	-0.078707	-0.141574	220	170	70
-0.216177	-0.525679	0.10421	220	170	70
0.013042	-0.411816	-0.41169	220	170	70
-0.09497	-0.022129	0.02254	220	170	70
0.009104	0.004451	0.121834	220	170	70
0.054213	-0.030734	0.382859	220	170	70
0.428154	-0.304497	-0.452551	220	170	70
-0.441013	-0.018522	-0.029631	220	170	70
-0.260088	0.300329	0.065233	220	170	70
-0.122875	-0.497884	0.079138	220	170	70
0.014287	-0.521576	0.065742	220	170	70
-0.334672	-0.230115	0.171048	220	170	70
-0.126842	-0.386634	0.061487	220	170	70
-0.100943	-0.148113	-0.105432	220	170	70
0.244224	-0.561257	-0.071225	220	170	70
-0.002338	-0.059597	0.504469	220	170	70
-0.02049	-0.384705	-0.471136	220	170	70
0.055811	-0.111201	-0.60046	220	170	70
0.315648	-0.358357	-0.205238	220	170	70
-0.218166	-0.138713	-0.375537	220	170	70
0.30095	-0.349554	-0.224476	220	170	70
-0.364862	0.139293	0.222753	220	170	70
-0.215123	0.492727	-0.42825	220	170	70
0.024182	0.081791	0.212944	220	170	70
0.014287	-0.521576	0.065742	220	170	70
-0.397988	-0.142697	-0.412834	220	170	70
-0.244538	-0.346109	0.220759	220	170	70
-0.067339	-0.081645	0.513744	220	170	70
-0.170333	0.219682	0.304376	220	170	70
0.468364	-0.233761	-0.489199	220	170	70
0.156548	0.130099	-0.083093	220	170	70
-0.226306	0.327	0.188523	220	170	70
0.505672	-0.275132	-0.429355	220	170	70
0.054538	0.047877	0.061663	220	170	70
-0.382348	0.065383	0.190968	220	170	70
-0.293201	-0.121272	0.270219	220	170	70
0.069522	-0.028093	0.274827	220	170	70
0.062904	0.064971	0.095093	220	170	70
0.340573	0.205733	0.157901	220	170	70
0.047169	-0.066519	-0.043544	220	170	70
0.088278	-0.219825	-0.281897	220	170	70
0.330086	-0.134913	-0.069536	220	170	70
-0.036452	0.071159	0.264258	220	170	70
-0.21614	0.231244	0.131978	220	170	70
0.18886	-0.628404	-0.115579	220	170	70
-0.435787	-0.227388	0.082251	220	170	70
0.268331	-0.534026	-0.207571	220	170	70
-0.332214	0.067627	0.233681	220	170	70
-0.129008	0.101673	0.290563	220	170	70
0.182549	-0.142574	0.031793	220	170	70
0.378683	-0.27313	-0.452213	220	170	70
-0.123036	0.08786	-0.684156	220	170	70
-0.048944	0.561066	-0.005077	220	170	70
0.001845	0.061189	-0.795565	220	170	70
0.417127	-0.433344	0.059459	220	170	70
0.304366	-0.516752	0.087401	220	170	70
0.076693	0.286353	0.104979	220	170	70
-0.003093	-0.184858	0.223396	220	170	70
0.244266	-0.300492	0.22404	220	170	70
-0.135634	0.123582	0.361551	220	170	70
0.466335	-0.242246	-0.489515	220	170	70
0.066325	-0.05679	0.081953	220	170	70
-0.245736	0.302671	-0.087996	220	170	70
0.033345	0.011424	0.109766	220	170	70
0.388244	-0.431327	0.097761	220	170	70
-0.139378	0.094691	0.291041	220	170	70
0.435462	-0.58543	0.006215	220	170	70
-0.010124	0.040363	-0.517625	220	170	70
0.36744	0.264528	-0.023664	220	170	70
-0.271605	-0.304849	0.167903	220	170	70
-0.164897	0.121285	-0.527237	220	170	70
-0.199629	-0.139164	0.206108	220	170	70
0.016244	0.043473	0.435105	220	170	70
0.084458	0.033495	0.048931	220	170	70
0.331336	-0.543902	0.088563	220	170	70
-0.330637	-0.061351	0.192058	220	170	70
-0.001037	-0.005623	-0.258801	220	170	70
0.284271	-0.25029	0.143066	220	170	70
-0.217565	0.186893	0.328858	220	170	70
0.069218	0.014848	0.061319	220	170	70
-0.132634	-0.117735	-0.038204	220	170	70
-0.438856	-0.352624	0.084048	220	170	70
-0.088952	-0.217836	-0.163886	220	170	70
-0.115958	-0.14193	-0.427996	220	170	70
-0.255474	0.061353	-0.075565	220	170	70
-0.030673	-0.508176	0.137447	220	170	70
0.01002	0.049235	-0.010681	220	170	70
0.208985	0.100824	-0.138877	220	170	70
0.053198	-0.544748	-0.295765	220	170	70
-0.179591	0.491014	-0.339892	220	170	70
0.205579	-0.353384	-0.281766	220	170	70
-0.130638	-0.126794	-0.437511	220	170	70
-0.236276	0.432482	-0.475394	220	170	70
0.39509	0.074001	-0.242344	220	170	70
-0.328486	0.098089	0.29893	220	170	70
0.507312	0.175186	-0.286042	220	170	70
-0.081324	-0.232041	0.19879	220	170	70
-0.144436	0.231936	0.305162	220	170	70
0.017266	0.303941	0.334957	220	170	70
-0.059977	-0.208341	-0.419145	220	170	70
0.010388	0.257658	0.295652	220	170	70
-0.026676	0.085065	-0.791392	220	170	70
-0.474118	-0.00584	0.010907	220	170	70
-0.245495	0.263465	0.146731	220	170	70
-0.015396	0.353049	0.075777	220	170	70
0.334766	-0.545014	0.112155	220	170	70
-0.228218	0.27844	-0.08656	220	170	70
0.374726	0.079956	-0.278571	220	170	70
-0.289851	-0.03704	0.228056	220	170	70
-0.003026	0.078398	-0.875635	220	170	70
0.087399	-0.173292	-0.548264	220	170	70
-0.360649	-0.100363	-0.481337	220	170	70
-0.199023	-0.410213	0.243384	220	170	70
0.355243	-0.27448	-0.12357	220	170	70
0.246749	0.396535	0.199232	220	170	70
-0.008394	-0.00429	-0.409204	220	170	70
0.040166	-0.029958	-0.341902	220	170	70
-0.428939	-0.226931	0.017585	220	170	70
-0.072201	0.449783	-0.073744	220	170	70
-0.219062	-0.23337	-0.278315	220	170	70
-0.087127	-0.020396	-0.285567	220	170	70
0.161009	0.1209	0.12596	220	170	70
-0.345111	-0.305051	0.13412	220	170	70
-0.541566	-0.219537	-0.486983	220	170	70
-0.211141	0.165411	0.359776	220	170	70
-0.063278	0.089564	0.273835	220	170	70
-0.233068	-0.256418	-0.143519	220	170	70
0.371067	-0.516803	0.063384	220	170	70
0.492591	-0.525456	-0.091883	220	170	70
-0.013248	0.548182	0.031083	220	170	70
0.162376	0.122081	0.145296	220	170	70
-0.254845	0.266803	0.148712	220	170	70
-0.121974	0.108397	-0.078851	220	170	70
-0.179094	0.11064	-0.547347	220	170	70
-0.409738	-0.303459	0.126833	220	170	70
-0.320651	0.065209	0.079464	220	170	70
-0.049856	-0.367215	-0.047257	220	170	70
0.383087	-0.535228	-0.260652	220	170	70
-0.044854	0.062834	-0.959358	220	170	70
0.081471	0.066844	-0.003896	220	170	70
-0.203693	0.493401	-0.457629	220	170	70
-0.211037	-0.400016	0.224877	220	170	70
-0.18685	-0.301534	0.009757	220	170	70
-0.297724	-0.215196	0.176734	220	170	70
-0.154836	-0.286289	0.162431	220	170	70
-0.150944	-0.39639	0.107249	220	170	70
-0.242246	-0.517385	0.084258	220	170	70
0.014962	-0.358778	0.214026	220	170	70
0.08046	0.299974	0.377812	220	170	70
-0.186513	0.200812	-0.192783	220	170	70
0.182807	-0.412489	0.221897	220	170	70
0.183646	-0.654219	-0.100012	220	170	70
-0.237995	0.294592	0.385023	220	170	70
-0.202076	0.207187	0.213187	220	170	70
-0.064493	0.054311	0.5993	220	170	70
0.045942	0.014776	0.385814	220	170	70
-0.014518	0.069359	-0.733224	220	170	70
-0.06425	-0.082406	0.533017	220	170	70
-0.001532	0.040892	-0.825356	220	170	70
-0.38916	-0.226973	0.163002	220	170	70
-0.262518	0.281702	0.102869	220	170	70
-0.238422	0.265234	-0.019893	220	170	70
-0.248941	0.486772	-0.477306	220	170	70
0.208985	0.100824	-0.138877	220	170	70
-0.022075	-0.18464	-0.372319	220	170	70
-0.23158	-0.357752	0.194738	220	170	70
-0.319358	0.089018	0.286121	220	170	70
0.034648	0.066196	0.236768	220	170	70
0.058404	0.162676	-0.476354	220	170	70
0.019655	0.000416	0.086453	220	170	70
-0.273597	-0.226104	0.146361	220	170	70
0.351933	0.25467	0.007016	220	170	70
-0.003738	-0.011569	0.085	220	170	70
-0.334935	-0.354261	0.108273	220	170	70
0.057757	0.280613	0.035842	220	170	70
-0.045178	0.075097	-0.849219	220	170	70
0.295382	-0.601671	-0.161479	220	170	70
0.321673	-0.550783	-0.022797	220	170	70
0.029911	0.196433	-0.422628	220	170	70
-0.039416	0.059903	0.375496	220	170	70
-0.280761	0.411221	0.105181	220	170	70
0.45947	0.017556	0.131491	220	170	70
-0.296897	0.38549	0.197254	220	170	70
0.413992	-0.168633	0.122857	220	170	70
-0.288703	0.45895	0.134773	220	170	70
0.517009	0.008747	0.191778	220	170	70
-0.270432	0.468618	0.200282	220	170	70
0.486802	-0.119279	0.143702	220	170	70
-0.375863	0.23904	-0.408523	220	170	70
0.405832	0.11248	0.326431	220	170	70
-0.472794	0.284713	-0.229533	220	170	70
0.388937	-0.222364	0.206933	220	170	70
-0.589623	0.170508	-0.435453	220	170	70
0.228894	0.285038	0.368863	220	170	70
-0.610507	0.219501	-0.233752	220	170	70
0.373597	-0.243303	0.215456	220	170	70
-0.545366	0.230287	-0.239349	220	170	70
0.456927	-0.149946	0.094177	220	170	70
-0.52821	0.205291	0.020555	220	170	70
0.332598	-0.356313	0.111199	220	170	70
-0.403645	0.40662	0.057785	220	170	70
0.361048	0.052607	0.381602	220	170	70
-0.421066	0.375453	0.109582	220	170	70
0.340328	-0.213452	0.265426	220	170	70
-0.489805	0.260309	-0.278248	220	170	70
0.421288	0.219816	0.069275	220	170	70
-0.561301	0.247999	-0.078427	220	170	70
0.476934	0.002348	0.03294	220	170	70
-0.045861	0.445371	-0.402102	220	170	70
0.012352	0.619072	-0.359639	220	170	70
-0.405747	0.232204	-0.274094	220	170	70
-0.042943	0.569187	-0.18717	220	170	70
-0.666765	0.128275	-0.23081	220	170	70
0.397242	0.232229	0.197741	220	170	70
-0.661881	0.129756	-0.061205	220	170	70
0.436313	-0.201037	0.086345	220	170	70
-0.349926	0.336591	-0.267929	220	170	70
0.407919	0.145211	0.243167	220	170	70
-0.4794	0.264331	-0.138482	220	170	70
0.399879	-0.200374	0.128909	220	170	70
-0.253604	0.473839	-0.060374	220	170	70
-0.191175	0.637065	-0.13866	220	170	70
-0.4599	0.360587	0.232587	220	170	70
0.231713	0.349355	0.187885	220	170	70
-0.498836	0.317952	-0.388976	220	170	70
0.1217	0.223179	0.45632	220	170	70
-0.625701	0.190472	-0.255935	220	170	70
0.043472	-0.358478	0.245523	220	170	70
0.282915	0.14066	0.416764	220	170	70
0.327593	0.099454	0.243718	220	170	70
0.332302	0.115323	0.368173	220	170	70
0.245907	-0.252267	0.151909	220	170	70
-0.388029	0.409382	0.238861	220	170	70
0.434413	0.236846	0.116934	220	170	70
-0.481914	0.206811	0.28363	220	170	70
0.283019	-0.447794	0.25325	220	170	70
-0.595509	0.332722	-0.260475	220	170	70
0.446537	0.153153	0.018472	220	170	70
-0.597238	0.346368	-0.072687	220	170	70
0.429233	-0.186142	-0.012404	220	170	70
-0.470908	0.176339	-0.360546	220	170	70
0.452877	-0.023398	0.029404	220	170	70
-0.46749	0.221728	-0.168887	220	170	70
0.416846	-0.186707	-0.001327	220	170	70
-0.062842	0.174917	0.516802	220	170	70
0.17512	0.34668	0.32152	220	170	70
-0.120037	0.098409	0.573475	220	170	70
0.129027	-0.24297	0.421242	220	170	70
-0.404783	0.309735	0.257769	220	170	70
0.364923	0.131496	0.407956	220	170	70
-0.38563	0.300776	0.272643	220	170	70
0.376176	-0.227704	0.315143	220	170	70
-0.497055	0.225514	-0.509589	220	170	70
0.401793	0.158018	0.300108	220	170	70
-0.566832	0.208835	-0.327435	220	170	70
0.465781	-0.091187	0.227468	220	170	70
0.109571	0.176221	0.511519	220	170	70
0.356651	0.233716	0.20733	220	170	70
0.02853	0.282635	0.453694	220	170	70
0.386327	-0.19323	0.091601	220	170	70
-0.585456	0.085384	0.209285	220	170	70
0.547204	0.079664	0.204972	220	170	70
-0.515527	0.087423	0.252303	220	170	70
0.536666	-0.108035	0.237475	220	170	70
-0.736811	0.063163	-0.272276	220	170	70
0.427442	0.331599	0.261208	220	170	70
-0.758028	0.229322	0.177225	220	170	70
0.490406	0.223085	0.036294	220	170	70
-0.157613	0.521809	-0.055933	220	170	70
-0.192606	0.572408	-0.336161	220	170	70
-0.36578	0.396888	0.213223	220	170	70
-0.275745	0.446445	-0.232434	220	170	70
-0.236773	0.466864	-0.037843	220	170	70
0.435498	0.077722	0.298306	220	170	70
-0.242886	0.458067	0.151376	220	170	70
0.371347	-0.26527	0.197262	220	170	70
-0.332921	0.447941	-0.068034	220	170	70
0.395517	0.19022	0.350149	220	170	70
-0.411727	0.379283	0.183977	220	170	70
0.435522	-0.094737	0.340771	220	170	70
-0.478976	0.174591	-0.085405	220	170	70
0.365107	0.01567	0.441969	220	170	70
-0.420077	0.239974	0.220234	220	170	70
0.356507	-0.115345	0.377965	220	170	70
-0.209948	0.189487	0.364027	220	170	70
0.393146	0.237428	0.187633	220	170	70
-0.240406	0.215689	0.408803	220	170	70
0.477116	-0.071588	0.055751	220	170	70
-0.665179	0.115827	-0.153606	220	170	70
0.571946	0.103555	0.029127	220	170	70
-0.625372	0.186789	0.102702	220	170	70
0.573621	-0.180942	0.044712	220	170	70
-0.588613	0.3157	0.190406	220	170	70
0.54938	0.225388	0.14158	220	170	70
-0.512331	0.215591	0.285764	220	170	70
0.380317	-0.386735	0.115156	220	170	70
-0.421678	0.327196	-0.357017	220	170	70
0.383083	0.028003	0.323942	220	170	70
-0.519856	0.222259	-0.266428	220	170	70
0.173198	-0.352562	0.119307	220	170	70
-0.064793	0.770024	-0.198025	220	170	70
0.428489	0.227203	0.212857	220	170	70
-0.259189	0.725989	-0.041396	220	170	70
0.482289	-0.100717	0.215849	220	170	70
-0.567287	0.19886	-0.007034	220	170	70
0.48062	0.152504	0.127207	220	170	70
-0.52932	0.173999	0.143248	220	170	70
0.486039	-0.109298	0.079002	220	170	70
-0.075262	-0.144632	0.505989	220	170	70
0.519089	-0.07912	0.119602	220	170	70
0.263631	-0.417939	0.407257	220	170	70
0.248148	0.397954	0.306468	220	170	70
-0.117093	0.59502	-0.071964	220	170	70
0.332599	0.336379	0.145403	220	170	70
-0.247928	0.543952	0.115691	220	170	70
0.47475	-0.133632	0.216145	220	170	70
-0.410246	0.268168	-0.093014	220	170	70
0.409736	0.141706	0.36801	220	170	70
-0.347038	0.360281	0.23729	220	170	70
0.462258	0.039294	0.336136	220	170	70
-0.090862	0.487362	-0.105394	220	170	70
0.258424	0.279761	0.236658	220	170	70
-0.172003	0.50787	0.166726	220	170	70
0.258774	-0.177902	0.307592	220	170	70
-0.429766	0.344079	0.12625	220	170	70
0.443502	0.007983	0.343222	220	170	70
-0.385754	0.363492	0.224704	220	170	70
0.446113	-0.088664	0.293968	220	170	70
-0.516035	0.291601	-0.275411	220	170	70
0.484985	-0.001453	0.182147	220	170	70
-0.538946	0.333466	-0.111583	220	170	70
0.471329	-0.132237	0.123197	220	170	70
0.076997	0.064355	0.555325	220	170	70
0.417116	0.099327	0.296623	220	170	70
0.061527	0.123346	0.535275	220	170	70
0.418777	-0.127669	0.244077	220	170	70
-0.471652	0.224636	-0.261024	220	170	70
0.407748	0.086456	0.093876	220	170	70
-0.490364	0.244133	-0.112186	220	170	70
0.400661	-0.151344	0.061049	220	170	70
-0.298009	0.344018	-0.313485	220	170	70
0.339003	0.133717	0.320733	220	170	70
-0.471301	0.353663	-0.175705	220	170	70
0.342135	-0.161104	0.273033	220	170	70
-0.122487	0.524175	-0.184195	220	170	70
0.434536	0.199763	0.136572	220	170	70
-0.175671	0.550668	0.052484	220	170	70
0.463738	-0.127406	0.13549	220	170	70
-0.536436	0.292667	0.124638	220	170	70
0.230871	0.10492	0.516165	220	170	70
