0.271846	0.003672	0.218301	220	170	70
0.28738	-0.023646	0.240167	220	170	70
0.271303	0.079776	0.253394	220	170	70
0.271565	-0.0623	0.253451	220	170	70
0.243989	-0.015677	0.243926	220	170	70
0.284382	0.022331	0.242547	220	170	70
0.215896	0.085945	0.247446	220	170	70
0.218534	-0.067124	0.240789	220	170	70
0.20198	0.003265	0.233281	220	170	70
0.230507	0.01395	0.238873	220	170	70
0.24057	0.071986	0.252131	220	170	70
0.239956	-0.065672	0.24955	220	170	70
0.221284	-0.019612	0.245648	220	170	70
0.24902	0.010578	0.258709	220	170	70
0.33739	0.108453	-0.032491	220	170	70
0.343823	-0.179517	-0.045892	220	170	70
0.321613	-0.030673	-0.052107	220	170	70
0.36405	-0.065457	0.013318	220	170	70
0.384246	0.219158	0.415128	220	170	70
0.388079	-0.224112	0.386922	220	170	70
0.424237	0.029899	0.372243	220	170	70
0.413263	-0.050022	0.428601	220	170	70
0.262222	0.09246	0.27594	220	170	70
0.26239	-0.064199	0.275782	220	170	70
0.230535	-0.010145	0.256419	220	170	70
0.290118	0.031308	0.253375	220	170	70
0.25093	0.0986	0.306177	220	170	70
0.242036	-0.059964	0.292437	220	170	70
0.239033	0.004436	0.290135	220	170	70
0.261415	0.029548	0.302097	220	170	70
0.204834	0.087002	0.152769	220	170	70
0.214346	-0.118949	0.144191	220	170	70
0.209295	-0.012023	0.154407	220	170	70
0.207077	-0.041359	0.187937	220	170	70
0.270929	0.30803	0.173517	220	170	70
0.281058	-0.29378	0.174469	220	170	70
0.343689	0.187657	0.135956	220	170	70
0.305619	-0.099211	0.222573	220	170	70
0.405582	0.19471	-0.021771	220	170	70
0.433703	-0.179601	-0.021314	220	170	70
0.45008	-0.005399	-0.039842	220	170	70
0.43643	-0.009927	0.045646	220	170	70
0.309917	0.302839	0.042705	220	170	70
0.358264	-0.27762	0.033946	220	170	70
0.461903	0.142778	0.007346	220	170	70
0.361509	-0.067491	0.214721	220	170	70
0.286592	0.084869	0.199503	220	170	70
0.287706	-0.083897	0.191929	220	170	70
0.250264	-0.026128	0.183237	220	170	70
0.30244	0.002399	0.194079	220	170	70
0.301266	0.11149	0.215358	220	170	70
0.304481	-0.106551	0.199287	220	170	70
0.300874	0.00229	0.201714	220	170	70
0.307182	-0.000669	0.232285	220	170	70
0.281765	0.290788	0.195876	220	170	70
0.311673	-0.335258	0.203809	220	170	70
0.365623	0.142871	0.172046	220	170	70
0.303195	-0.167121	0.271629	220	170	70
0.242287	0.084377	0.246675	220	170	70
0.241967	-0.090882	0.243595	220	170	70
0.24211	0.005214	0.246594	220	170	70
0.248143	-0.010138	0.256773	220	170	70
0.283314	0.147688	0.090064	220	170	70
0.297257	-0.238596	0.087761	220	170	70
0.271407	-0.032262	0.078156	220	170	70
0.308893	-0.129267	0.12276	220	170	70
0.248865	0.084291	0.239617	220	170	70
0.254431	-0.087568	0.231456	220	170	70
0.240392	-0.022714	0.234241	220	170	70
0.253598	-0.003087	0.247499	220	170	70
0.253968	0.097672	0.243381	220	170	70
0.258151	-0.096898	0.232973	220	170	70
0.258147	0.001088	0.233177	220	170	70
0.260088	-0.0042	0.252625	220	170	70
0.335706	0.409925	0.012293	220	170	70
0.33081	-0.284481	0.041202	220	170	70
0.480355	0.273197	-0.004868	220	170	70
0.408314	-0.028804	0.110515	220	170	70
0.277599	0.377579	0.123902	220	170	70
0.297878	-0.430063	0.129757	220	170	70
0.384819	0.242856	0.1007	220	170	70
0.331594	-0.253334	0.19467	220	170	70
0.300295	0.09736	0.398136	220	170	70
0.297874	-0.110871	0.381998	220	170	70
0.263095	-0.02689	0.371576	220	170	70
0.31862	-0.020878	0.3624	220	170	70
0.275322	0.116621	0.227387	220	170	70
0.277437	-0.117727	0.223797	220	170	70
0.274845	0.013683	0.224598	220	170	70
0.289597	-0.012863	0.238442	220	170	70
0.230186	0.264692	0.067448	220	170	70
0.243763	-0.227823	0.083557	220	170	70
0.308948	0.175093	0.063052	220	170	70
0.262435	-0.064013	0.160025	220	170	70
0.180783	0.213365	-0.032249	220	170	70
0.191003	-0.22073	-0.012168	220	170	70
0.248787	0.103769	-0.020537	220	170	70
0.212814	-0.090836	0.051924	220	170	70
0.34231	0.137312	0.140725	220	170	70
0.342121	-0.168595	0.133212	220	170	70
0.319005	-0.008482	0.122277	220	170	70
0.383884	-0.049701	0.143087	220	170	70
0.27652	0.08857	0.254626	220	170	70
0.280146	-0.086476	0.249428	220	170	70
0.257104	-0.023418	0.242487	220	170	70
0.286982	-0.000932	0.246007	220	170	70
0.223955	0.185322	0.216893	220	170	70
0.227418	-0.213583	0.214859	220	170	70
0.259743	0.087569	0.210591	220	170	70
0.227905	-0.109595	0.239839	220	170	70
0.273256	0.155483	0.13127	220	170	70
0.282264	-0.13868	0.126256	220	170	70
0.305873	0.02435	0.122608	220	170	70
0.282044	-0.002771	0.190403	220	170	70
0.216624	0.080943	0.232304	220	170	70
0.215172	-0.091035	0.22912	220	170	70
0.214913	-0.009174	0.230746	220	170	70
0.223225	-0.014028	0.248081	220	170	70
0.216316	0.169231	0.031602	220	170	70
0.23593	-0.332009	0.01538	220	170	70
0.222461	0.038731	0.025824	220	170	70
0.265914	-0.242919	0.093121	220	170	70
0.240689	0.072841	0.248644	220	170	70
0.242348	-0.06963	0.24857	220	170	70
0.21929	-0.022411	0.248162	220	170	70
0.250569	0.002754	0.254388	220	170	70
0.250358	0.109926	0.267371	220	170	70
0.251447	-0.116417	0.258254	220	170	70
0.246132	0.016463	0.257818	220	170	70
0.263599	-0.020347	0.259122	220	170	70
0.347714	0.19514	-0.088002	220	170	70
0.369445	-0.261418	-0.082616	220	170	70
0.397516	0.027402	-0.11017	220	170	70
0.39371	-0.107762	-0.0127	220	170	70
0.529471	0.595839	-0.247591	220	170	70
0.550215	-0.566617	-0.252163	220	170	70
0.70516	0.413349	-0.346102	220	170	70
0.719057	-0.263425	-0.200342	220	170	70
0.277299	0.072079	0.253263	220	170	70
0.283325	-0.077243	0.243665	220	170	70
0.242737	-0.040193	0.244726	220	170	70
0.280879	-0.005014	0.237999	220	170	70
0.244394	0.107609	0.237343	220	170	70
0.247011	-0.096618	0.238138	220	170	70
0.24756	0.019591	0.236581	220	170	70
0.253421	0.001471	0.250048	220	170	70
0.248743	0.290611	0.159023	220	170	70
0.255587	-0.284096	0.165235	220	170	70
0.324474	0.160797	0.138326	220	170	70
0.285663	-0.103442	0.217592	220	170	70
0.256388	0.085846	0.260364	220	170	70
0.256727	-0.090715	0.249622	220	170	70
0.238282	-0.009793	0.24926	220	170	70
0.26659	-0.008379	0.249294	220	170	70
0.318554	0.42666	0.178208	220	170	70
0.334366	-0.43998	0.19159	220	170	70
0.447425	0.249523	0.145544	220	170	70
0.374403	-0.20005	0.267871	220	170	70
0.318177	0.215649	0.28432	220	170	70
0.336315	-0.157289	0.266423	220	170	70
0.418358	0.04517	0.222248	220	170	70
0.357733	0.056062	0.424326	220	170	70
0.29973	0.294262	-0.077848	220	170	70
0.316047	-0.226095	-0.057885	220	170	70
0.411835	0.130427	-0.101259	220	170	70
0.373775	-0.008197	0.042091	220	170	70
0.355056	0.290159	0.127947	220	170	70
0.365459	-0.341041	0.140358	220	170	70
0.429858	0.118231	0.120029	220	170	70
0.397659	-0.171509	0.182756	220	170	70
0.331073	0.158763	-0.096919	220	170	70
0.347729	-0.137648	-0.090625	220	170	70
0.360245	0.009806	-0.098865	220	170	70
0.368281	0.003989	-0.024002	220	170	70
0.396257	0.227893	0.22823	220	170	70
0.393213	-0.188971	0.224157	220	170	70
0.443961	0.047993	0.194961	220	170	70
0.431578	0.016275	0.285795	220	170	70
0.244253	0.068219	0.270308	220	170	70
0.245535	-0.077994	0.259244	220	170	70
0.228356	-0.030713	0.259477	220	170	70
0.24529	-0.004725	0.269913	220	170	70
0.543391	0.305724	0.275979	220	170	70
0.538693	-0.306872	0.260228	220	170	70
0.567662	0.070978	0.220793	220	170	70
0.596674	-0.080278	0.280916	220	170	70
0.287742	0.091679	0.275247	220	170	70
0.293435	-0.093409	0.268178	220	170	70
0.27344	-0.012374	0.265909	220	170	70
0.297014	-0.004784	0.264821	220	170	70
0.249996	0.097949	0.257914	220	170	70
0.247633	-0.089507	0.252141	220	170	70
0.240502	0.010662	0.253136	220	170	70
0.261937	0.001379	0.252945	220	170	70
0.329241	0.161548	0.295221	220	170	70
0.324519	-0.135659	0.287169	220	170	70
0.318965	0.027292	0.274262	220	170	70
0.358622	0.004492	0.288876	220	170	70
0.260437	0.103538	0.246676	220	170	70
0.262648	-0.090586	0.247593	220	170	70
0.253301	0.006965	0.248302	220	170	70
0.270231	0.003322	0.250125	220	170	70
0.332032	0.286952	0.108148	220	170	70
0.33915	-0.254932	0.114867	220	170	70
0.434569	0.133868	0.08506	220	170	70
0.358258	-0.053307	0.190329	220	170	70
0.330754	0.144721	0.408726	220	170	70
0.330765	-0.219645	0.390554	220	170	70
0.329911	-0.019751	0.384534	220	170	70
0.336469	-0.11936	0.420012	220	170	70
0.226848	0.052624	0.261432	220	170	70
0.225998	-0.054019	0.250151	220	170	70
0.190537	-0.0462	0.242801	220	170	70
0.236092	0.01227	0.24394	220	170	70
0.259305	0.103081	0.239125	220	170	70
0.26576	-0.111257	0.231665	220	170	70
0.267633	-0.012873	0.229368	220	170	70
0.268445	-0.015289	0.252646	220	170	70
0.39581	0.275213	0.037533	220	170	70
0.412853	-0.29424	0.041083	220	170	70
0.471876	0.090605	0.020622	220	170	70
0.449533	-0.111321	0.100071	220	170	70
0.383344	0.118849	0.168814	220	170	70
0.39526	-0.156488	0.156107	220	170	70
0.374351	-0.033767	0.140289	220	170	70
0.383328	-0.038447	0.194237	220	170	70
0.261045	0.187374	0.190193	220	170	70
0.266493	-0.204556	0.195469	220	170	70
0.313443	0.076352	0.187951	220	170	70
0.281388	-0.068629	0.248891	220	170	70
0.264084	0.121749	0.229342	220	170	70
0.268721	-0.149741	0.228119	220	170	70
0.265164	0.021553	0.221037	220	170	70
0.284112	-0.049289	0.250522	220	170	70
0.460508	0.350435	-0.397203	220	170	70
0.485026	-0.372668	-0.373921	220	170	70
0.557934	0.060233	-0.408766	220	170	70
0.600863	-0.135795	-0.287542	220	170	70
0.490102	0.268669	-0.292064	220	170	70
0.548598	-0.258512	-0.274649	220	170	70
0.61046	-0.069764	-0.310483	220	170	70
0.53818	-0.02364	-0.163603	220	170	70
0.417138	0.311449	-0.167131	220	170	70
0.445059	-0.398996	-0.162158	220	170	70
0.489557	0.038578	-0.199999	220	170	70
0.529911	-0.188553	-0.092157	220	170	70
0.232828	0.078992	0.28803	220	170	70
0.241847	-0.083566	0.282881	220	170	70
0.215951	-0.017777	0.283971	220	170	70
0.241117	-0.014629	0.278787	220	170	70
0.246115	0.088073	0.253209	220	170	70
0.244058	-0.066328	0.247947	220	170	70
0.236175	0.00721	0.251653	220	170	70
0.256004	0.015438	0.251593	220	170	70
0.295078	0.398857	0.144749	220	170	70
0.303599	-0.411256	0.17141	220	170	70
0.420033	0.229768	0.145648	220	170	70
0.319874	-0.211446	0.249275	220	170	70
0.257733	0.106958	0.211383	220	170	70
0.25037	-0.051737	0.200894	220	170	70
0.253103	0.023794	0.19554	220	170	70
0.265678	0.05309	0.229778	220	170	70
0.279214	0.079346	0.22561	220	170	70
0.282814	-0.070332	0.213761	220	170	70
0.253103	-0.040907	0.20473	220	170	70
0.282716	0.015327	0.223472	220	170	70
0.694605	0.197942	0.230727	220	170	70
0.665647	-0.261435	0.19248	220	170	70
0.609717	-0.092674	0.136146	220	170	70
0.739258	-0.053398	0.21895	220	170	70
0.644467	0.344449	-0.128804	220	170	70
0.710908	-0.224487	-0.119135	220	170	70
0.726477	-0.024403	-0.154371	220	170	70
0.724827	0.058296	-0.002887	220	170	70
0.272509	0.074139	0.238211	220	170	70
0.276472	-0.06736	0.23187	220	170	70
0.23865	-0.04699	0.229413	220	170	70
0.278893	0.009632	0.229395	220	170	70
0.212833	0.252434	0.17309	220	170	70
0.225412	-0.28189	0.182126	220	170	70
0.287115	0.150251	0.15504	220	170	70
0.249131	-0.137571	0.236831	220	170	70
0.253408	0.089236	0.244507	220	170	70
0.254299	-0.114335	0.235054	220	170	70
0.243773	-0.015641	0.237437	220	170	70
0.261673	-0.033783	0.248641	220	170	70
0.199391	0.105197	0.22677	220	170	70
0.203795	-0.11183	0.228661	220	170	70
0.226761	0.022939	0.23394	220	170	70
0.204371	-0.024148	0.267141	220	170	70
0.252405	0.427802	0.265988	220	170	70
0.232159	-0.325389	0.270618	220	170	70
0.358121	0.358069	0.232782	220	170	70
0.276158	-0.071744	0.305544	220	170	70
0.232518	0.070676	0.194381	220	170	70
0.237884	-0.08085	0.191096	220	170	70
0.211609	-0.033483	0.190446	220	170	70
0.233323	-0.010885	0.208833	220	170	70
0.29365	0.156851	0.275239	220	170	70
0.297113	-0.153988	0.278061	220	170	70
0.333943	0.023634	0.279419	220	170	70
0.30478	-0.034698	0.30333	220	170	70
0.335217	0.210081	0.349125	220	170	70
0.348992	-0.240279	0.327102	220	170	70
0.434198	0.058142	0.360982	220	170	70
0.325669	-0.098449	0.388711	220	170	70
0.287528	0.194539	0.287146	220	170	70
0.290934	-0.236424	0.281024	220	170	70
0.315964	0.07039	0.27641	220	170	70
0.306446	-0.122258	0.281242	220	170	70
0.349997	0.490906	0.022354	220	170	70
0.368223	-0.502788	0.040609	220	170	70
0.4947	0.321056	-0.01175	220	170	70
0.433825	-0.26333	0.138834	220	170	70
0.25411	0.074917	0.263424	220	170	70
0.256628	-0.072789	0.254786	220	170	70
0.218464	-0.029585	0.249823	220	170	70
0.26535	0.005576	0.243776	220	170	70
0.273727	0.123857	0.25506	220	170	70
0.274838	-0.12314	0.252709	220	170	70
0.265576	0.004758	0.262244	220	170	70
0.289148	-0.020907	0.255389	220	170	70
0.224268	0.208595	0.218139	220	170	70
0.247702	-0.15171	0.212559	220	170	70
0.3219	0.103182	0.212377	220	170	70
0.240293	0.029253	0.342298	220	170	70
0.239484	0.10337	0.278316	220	170	70
0.248873	-0.110794	0.282894	220	170	70
0.245666	0.006572	0.282934	220	170	70
0.257318	-0.02623	0.275704	220	170	70
0.329987	0.225674	-0.102773	220	170	70
0.342826	-0.262314	-0.094164	220	170	70
0.392052	0.035218	-0.115427	220	170	70
0.38002	-0.091327	-0.021006	220	170	70
0.276571	0.36831	-0.053757	220	170	70
0.304557	-0.415656	-0.031407	220	170	70
0.384722	0.210204	-0.062704	220	170	70
0.370054	-0.227061	0.059977	220	170	70
0.279587	0.225967	0.106206	220	170	70
0.325165	-0.356685	0.104521	220	170	70
0.347057	0.081728	0.087891	220	170	70
0.328358	-0.226436	0.207334	220	170	70
0.632047	0.245185	0.023127	220	170	70
0.622052	-0.334431	0.011821	220	170	70
0.616471	-0.057679	-0.061261	220	170	70
0.718837	-0.118367	0.003084	220	170	70
0.243699	0.111234	0.221871	220	170	70
0.24529	-0.123225	0.215102	220	170	70
0.246961	0.004035	0.216049	220	170	70
0.24516	-0.025988	0.246978	220	170	70
0.447698	0.468746	-0.252372	220	170	70
0.488286	-0.433926	-0.2296	220	170	70
0.636891	0.219294	-0.286154	220	170	70
0.593507	-0.149937	-0.162019	220	170	70
0.204892	0.07054	0.241514	220	170	70
0.206719	-0.071625	0.236118	220	170	70
0.210862	-0.011374	0.241747	220	170	70
0.206607	0.001579	0.264685	220	170	70
0.289943	0.292898	0.151235	220	170	70
0.316148	-0.38447	0.140704	220	170	70
0.363343	0.16663	0.105011	220	170	70
0.339074	-0.223833	0.196975	220	170	70
0.413228	0.453105	0.247891	220	170	70
0.40765	-0.424592	0.258067	220	170	70
0.571619	0.330743	0.201794	220	170	70
0.539943	-0.15301	0.321632	220	170	70
0.147698	0.116427	0.183369	220	170	70
0.136166	-0.020145	0.188069	220	170	70
0.145915	0.058387	0.186667	220	170	70
0.156254	0.069887	0.211603	220	170	70
0.222384	0.100988	0.276854	220	170	70
0.22662	-0.099449	0.266804	220	170	70
0.225936	0.018794	0.252986	220	170	70
0.244233	0.002885	0.276223	220	170	70
0.213569	0.110675	0.217575	220	170	70
0.213655	-0.094271	0.218459	220	170	70
0.221217	0.034365	0.224498	220	170	70
0.223226	0.005687	0.238901	220	170	70
0.179992	0.339892	0.116379	220	170	70
0.184911	-0.326793	0.132138	220	170	70
0.284459	0.216803	0.101043	220	170	70
0.206081	-0.144187	0.179676	220	170	70
0.225166	0.099045	0.18095	220	170	70
0.224914	-0.089465	0.182953	220	170	70
0.22875	0.019018	0.182994	220	170	70
0.239884	0.008129	0.200701	220	170	70
0.256818	0.128732	0.27857	220	170	70
0.259489	-0.146018	0.275741	220	170	70
0.269158	0.028479	0.281314	220	170	70
0.267125	-0.053463	0.29418	220	170	70
0.279614	0.093072	0.267256	220	170	70
0.282573	-0.101198	0.256602	220	170	70
0.264072	-0.00652	0.257655	220	170	70
0.290309	-0.009482	0.264788	220	170	70
0.241432	0.076407	0.291417	220	170	70
0.24555	-0.08918	0.28031	220	170	70
0.228169	-0.032798	0.278377	220	170	70
0.247206	-0.011706	0.289506	220	170	70
0.248013	0.082491	0.263318	220	170	70
0.251733	-0.077957	0.253107	220	170	70
0.23395	-0.015406	0.262309	220	170	70
0.256037	0.006589	0.256822	220	170	70
0.226293	0.273639	0.172351	220	170	70
0.238965	-0.300723	0.186386	220	170	70
0.317813	0.167381	0.17851	220	170	70
0.245273	-0.156779	0.254318	220	170	70
0.241656	0.191647	0.168764	220	170	70
0.255628	-0.223024	0.171606	220	170	70
0.300217	0.082049	0.17181	220	170	70
0.257273	-0.101376	0.2359	220	170	70
0.204635	0.128808	0.234922	220	170	70
0.220775	-0.210578	0.235827	220	170	70
0.209258	0.035097	0.236075	220	170	70
0.221828	-0.12363	0.261561	220	170	70
0.248719	0.257058	0.021346	220	170	70
0.286021	-0.300662	0.036457	220	170	70
0.385528	0.07638	0.028262	220	170	70
0.28912	-0.154427	0.150295	220	170	70
0.256085	0.109092	0.139179	220	170	70
0.262921	-0.114563	0.137979	220	170	70
0.253859	-0.003878	0.107506	220	170	70
0.273913	-0.002288	0.159778	220	170	70
0.243194	0.060355	0.289843	220	170	70
0.247325	-0.05834	0.279734	220	170	70
0.216636	-0.046853	0.278379	220	170	70
0.241165	0.006747	0.275682	220	170	70
0.239362	0.088099	0.218879	220	170	70
0.239651	-0.092878	0.216508	220	170	70
0.227087	-0.000821	0.212511	220	170	70
0.253712	-0.008919	0.224979	220	170	70
0.256403	0.089832	0.256773	220	170	70
0.258235	-0.08283	0.248692	220	170	70
0.244655	-0.004888	0.248754	220	170	70
0.266432	0.001017	0.259209	220	170	70
0.497702	0.441928	-0.042145	220	170	70
0.524402	-0.445097	-0.025671	220	170	70
0.654906	0.126683	-0.071529	220	170	70
0.577894	-0.188458	0.026278	220	170	70
0.237613	0.103632	0.18197	220	170	70
0.244461	-0.08917	0.175003	220	170	70
0.236271	-0.017856	0.171692	220	170	70
0.237908	0.00954	0.196272	220	170	70
0.292925	0.306558	0.149463	220	170	70
0.296067	-0.194605	0.162625	220	170	70
0.408778	0.144036	0.112741	220	170	70
0.31759	0.050425	0.261985	220	170	70
0.215849	0.071441	0.199685	220	170	70
0.234086	0.032932	0.163113	220	170	70
0.217707	-0.026291	0.156998	220	170	70
0.215103	0.12176	0.242932	220	170	70
0.285338	0.065451	0.259389	220	170	70
0.28557	-0.070167	0.253303	220	170	70
0.240352	-0.038463	0.244917	220	170	70
0.293034	0.003381	0.242276	220	170	70
0.220967	0.086117	0.210147	220	170	70
0.223454	-0.079563	0.20221	220	170	70
0.219066	-0.006385	0.199266	220	170	70
0.225031	0.005782	0.230466	220	170	70
0.267924	0.09057	0.265337	220	170	70
0.269275	-0.093499	0.259156	220	170	70
0.260524	-0.027285	0.253394	220	170	70
0.276447	-0.008223	0.266913	220	170	70
0.348922	0.07102	0.352782	220	170	70
0.352448	-0.050747	0.346398	220	170	70
0.274467	-0.057904	0.318431	220	170	70
0.379485	0.040209	0.283206	220	170	70
0.222359	0.08261	0.233253	220	170	70
0.224457	-0.089277	0.225019	220	170	70
0.203603	-0.006364	0.214376	220	170	70
0.233841	-0.001091	0.229947	220	170	70
0.247075	0.078164	0.252086	220	170	70
0.249296	-0.084335	0.247735	220	170	70
0.227187	-0.029545	0.243126	220	170	70
0.251537	-0.006454	0.25464	220	170	70
0.257328	0.093104	0.257865	220	170	70
0.259844	-0.081806	0.25569	220	170	70
0.240604	-0.00722	0.251603	220	170	70
0.277498	0.014702	0.251338	220	170	70
0.256063	0.107862	0.247142	220	170	70
0.255545	-0.091325	0.244633	220	170	70
0.248674	0.012378	0.240393	220	170	70
0.275295	0.011541	0.241285	220	170	70
0.166577	0.148538	-0.102036	220	170	70
0.194594	-0.160267	-0.09559	220	170	70
0.242394	0.045532	-0.088978	220	170	70
0.18263	-0.043456	0.018385	220	170	70
0.274486	0.074287	-0.189539	220	170	70
0.303477	-0.168572	-0.185939	220	170	70
0.263185	-0.035456	-0.17824	220	170	70
0.292389	-0.077831	-0.096323	220	170	70
0.284441	0.218985	0.324075	220	170	70
0.293825	-0.267633	0.32076	220	170	70
0.332111	0.081661	0.32392	220	170	70
0.295143	-0.143098	0.347753	220	170	70
0.27952	0.084233	0.276305	220	170	70
0.285251	-0.082801	0.259075	220	170	70
0.26381	-0.034457	0.26592	220	170	70
0.283808	0.002555	0.264464	220	170	70
0.236612	0.076025	0.231277	220	170	70
0.23546	-0.055677	0.227536	220	170	70
0.217393	-0.011388	0.224442	220	170	70
0.248919	0.028258	0.226652	220	170	70
0.276055	0.104452	0.230815	220	170	70
0.278272	-0.134439	0.22165	220	170	70
0.268379	-0.004195	0.22173	220	170	70
0.282058	-0.044226	0.240024	220	170	70
0.329839	0.108829	0.214827	220	170	70
0.340836	-0.13742	0.197632	220	170	70
0.310267	-0.045528	0.173523	220	170	70
0.340748	-0.033579	0.206032	220	170	70
0.293212	0.303229	0.056009	220	170	70
0.314054	-0.338726	0.074738	220	170	70
0.386264	0.151263	0.046084	220	170	70
0.326472	-0.176455	0.137333	220	170	70
0.285354	0.117242	0.221537	220	170	70
0.28878	-0.138453	0.21381	220	170	70
0.281624	0.002431	0.204281	220	170	70
0.294267	-0.038033	0.238925	220	170	70
0.299243	0.169411	0.208815	220	170	70
0.305168	-0.195898	0.211257	220	170	70
0.321644	0.048059	0.195477	220	170	70
0.327674	-0.063232	0.229142	220	170	70
0.555722	0.159529	-0.53264	220	170	70
0.605758	-0.287368	-0.521185	220	170	70
0.522561	-0.111268	-0.554081	220	170	70
0.638177	-0.111089	-0.433901	220	170	70
0.257238	0.144626	0.261204	220	170	70
0.256078	-0.15248	0.248512	220	170	70
0.27372	0.016951	0.207886	220	170	70
0.283352	-0.020958	0.253981	220	170	70
0.237544	0.10703	0.239988	220	170	70
0.237529	-0.125127	0.236957	220	170	70
0.240888	0.020437	0.236296	220	170	70
0.253333	-0.033946	0.25324	220	170	70
0.279444	0.08839	0.066267	220	170	70
0.284618	-0.089096	0.064375	220	170	70
0.261995	-0.025208	0.054689	220	170	70
0.290218	-0.003941	0.093379	220	170	70
0.243731	0.106558	0.263264	220	170	70
0.242323	-0.134313	0.250798	220	170	70
0.25887	0.004878	0.255816	220	170	70
0.251051	-0.037585	0.289407	220	170	70
0.407324	0.444153	-0.315761	220	170	70
0.43352	-0.451733	-0.296124	220	170	70
0.583058	0.193556	-0.375415	220	170	70
0.570741	-0.197772	-0.223443	220	170	70
0.264567	0.086601	0.146721	220	170	70
0.274389	-0.107827	0.14069	220	170	70
0.231482	-0.040254	0.131625	220	170	70
0.284329	-0.02007	0.148081	220	170	70
0.252305	0.082752	0.251725	220	170	70
0.258187	-0.07211	0.246486	220	170	70
0.248042	0.000575	0.249978	220	170	70
0.257478	0.007935	0.254841	220	170	70
0.27228	0.19477	0.202769	220	170	70
0.251794	-0.082742	0.196015	220	170	70
0.285235	0.102207	0.182657	220	170	70
0.288203	0.075423	0.221898	220	170	70
0.280779	0.073618	0.24739	220	170	70
0.281176	-0.062199	0.239455	220	170	70
0.242637	-0.043144	0.222272	220	170	70
0.299605	0.021073	0.227171	220	170	70
0.305364	0.242625	-0.281371	220	170	70
0.321136	-0.308833	-0.271215	220	170	70
0.385657	0.070043	-0.292161	220	170	70
0.408921	-0.144221	-0.177483	220	170	70
0.250861	0.077113	0.266475	220	170	70
0.258102	-0.083679	0.260195	220	170	70
0.238154	-0.015665	0.258409	220	170	70
0.2604	-0.004146	0.25369	220	170	70
0.378233	0.186679	0.034466	220	170	70
0.396742	-0.229938	0.033127	220	170	70
0.395304	-0.012654	0.000321	220	170	70
0.405833	-0.077357	0.048249	220	170	70
0.215829	0.115621	0.222189	220	170	70
0.2163	-0.120948	0.215876	220	170	70
0.228664	0.027754	0.211322	220	170	70
0.226822	-0.018275	0.249416	220	170	70
0.552925	0.307561	-0.038896	220	170	70
0.574319	-0.331453	-0.048112	220	170	70
0.611942	0.016596	-0.08676	220	170	70
0.628412	-0.115324	0.002261	220	170	70
0.19738	0.227995	-0.003557	220	170	70
0.211414	-0.259019	0.013026	220	170	70
0.273225	0.129554	-0.004869	220	170	70
0.234016	-0.136217	0.08573	220	170	70
0.26466	0.099373	0.235693	220	170	70
0.268769	-0.128663	0.223345	220	170	70
0.257093	-0.0095	0.229276	220	170	70
0.272551	-0.03633	0.24774	220	170	70
0.2679	0.0783	0.254123	220	170	70
0.271725	-0.084849	0.24973	220	170	70
0.242902	-0.015484	0.247463	220	170	70
0.278013	-0.006963	0.248677	220	170	70
0.280639	0.071853	0.222421	220	170	70
0.285305	-0.072904	0.21374	220	170	70
0.246256	-0.043222	0.210055	220	170	70
0.288323	0.00515	0.220356	220	170	70
0.224848	0.087824	0.198641	220	170	70
0.226825	-0.091462	0.189401	220	170	70
0.21494	-0.009057	0.175001	220	170	70
0.239068	0.000905	0.212207	220	170	70
0.244167	0.090791	0.300944	220	170	70
0.247405	-0.075566	0.287604	220	170	70
0.227963	-0.007375	0.292572	220	170	70
0.256416	0.001506	0.293115	220	170	70
0.197111	0.364816	0.092546	220	170	70
0.202595	-0.339314	0.108333	220	170	70
0.335788	0.245897	0.080896	220	170	70
0.229456	-0.12321	0.238199	220	170	70
0.463289	0.203724	0.264875	220	170	70
0.473411	-0.199941	0.24083	220	170	70
0.457309	0.03265	0.221247	220	170	70
0.492838	-0.024478	0.271039	220	170	70
0.458297	0.238643	-0.038177	220	170	70
0.503574	-0.247842	-0.030258	220	170	70
0.537289	-0.053295	-0.048073	220	170	70
0.475366	-0.064837	0.03485	220	170	70
0.245912	0.081062	0.263837	220	170	70
0.249903	-0.081178	0.252995	220	170	70
0.234229	-0.017389	0.245385	220	170	70
0.251186	0.003076	0.26248	220	170	70
0.322151	0.141564	0.35194	220	170	70
0.336177	-0.217395	0.325338	220	170	70
0.306775	-0.044461	0.34341	220	170	70
0.329728	-0.129622	0.340919	220	170	70
0.290894	0.280079	0.384235	220	170	70
0.296954	-0.28058	0.385865	220	170	70
0.376714	0.144464	0.366736	220	170	70
0.307312	-0.085544	0.437728	220	170	70
0.406164	0.474813	-0.148866	220	170	70
0.438289	-0.502391	-0.146961	220	170	70
0.553176	0.205343	-0.185575	220	170	70
0.53061	-0.230072	-0.032902	220	170	70
0.307924	0.237939	0.006553	220	170	70
0.343111	-0.23206	0.011696	220	170	70
0.409199	0.063615	-0.004078	220	170	70
0.341089	-0.060274	0.096049	220	170	70
0.30733	0.203874	0.353399	220	170	70
0.305302	-0.181527	0.333057	220	170	70
0.374986	0.04127	0.340475	220	170	70
0.313808	-0.012555	0.411711	220	170	70
0.313622	0.125381	0.263298	220	170	70
0.3161	-0.138567	0.258175	220	170	70
0.306766	0.000252	0.25507	220	170	70
0.326332	-0.032202	0.264728	220	170	70
0.216815	0.122795	0.20958	220	170	70
0.227279	-0.121097	0.207618	220	170	70
0.234352	0.03012	0.197813	220	170	70
0.234989	-0.013198	0.232469	220	170	70
0.246651	0.088581	0.19693	220	170	70
0.249572	-0.110988	0.193609	220	170	70
0.240794	-0.018301	0.192639	220	170	70
0.25083	-0.031157	0.219879	220	170	70
0.270409	0.276866	0.263049	220	170	70
0.2645	-0.265891	0.266631	220	170	70
0.337331	0.140979	0.252856	220	170	70
0.296698	-0.082197	0.320211	220	170	70
0.265979	0.083466	0.239717	220	170	70
0.27222	-0.083452	0.227821	220	170	70
0.252479	-0.02552	0.228315	220	170	70
0.267709	0.002589	0.237076	220	170	70
0.261309	0.289887	0.2594	220	170	70
0.283348	-0.351203	0.266318	220	170	70
0.368525	0.107439	0.255839	220	170	70
0.267277	-0.202271	0.345788	220	170	70
0.386252	0.23758	0.005221	220	170	70
0.428964	-0.268434	0.013477	220	170	70
0.483388	0.0434	-0.008863	220	170	70
0.422024	-0.09935	0.068638	220	170	70
0.295566	0.159439	-0.354264	220	170	70
0.317401	-0.176061	-0.371113	220	170	70
0.360325	0.021665	-0.422692	220	170	70
0.34468	-0.051365	-0.252221	220	170	70
0.35654	0.363813	0.268292	220	170	70
0.363394	-0.384846	0.271519	220	170	70
0.463879	0.182809	0.252735	220	170	70
0.382616	-0.179634	0.319837	220	170	70
0.275054	0.082034	0.289154	220	170	70
0.277102	-0.087684	0.280371	220	170	70
0.248735	-0.028407	0.267915	220	170	70
0.287526	-0.003177	0.275693	220	170	70
0.246934	0.095814	0.272782	220	170	70
0.24922	-0.100015	0.260744	220	170	70
0.237363	0.001379	0.263133	220	170	70
0.253381	-0.010019	0.268758	220	170	70
0.232455	0.085262	0.28689	220	170	70
0.233775	-0.070556	0.272692	220	170	70
0.208857	0.006686	0.256193	220	170	70
0.255967	0.015017	0.270206	220	170	70
0.233155	0.098778	0.106155	220	170	70
0.240278	-0.123342	0.10428	220	170	70
0.231342	-0.008692	0.10124	220	170	70
0.243066	-0.03597	0.144514	220	170	70
0.248594	0.085898	0.256578	220	170	70
0.248198	-0.093094	0.248351	220	170	70
0.234783	-0.006838	0.24453	220	170	70
0.259275	-0.010983	0.258455	220	170	70
0.566169	0.381273	-0.398719	220	170	70
0.616025	-0.377467	-0.366815	220	170	70
0.668149	0.0353	-0.429021	220	170	70
0.73591	-0.110435	-0.308948	220	170	70
0.344658	0.220967	0.297416	220	170	70
0.345496	-0.252351	0.290143	220	170	70
0.38332	0.124346	0.262918	220	170	70
0.384521	-0.096852	0.313406	220	170	70
0.211498	0.123582	0.225031	220	170	70
0.217267	-0.116875	0.226542	220	170	70
0.229611	0.017288	0.225213	220	170	70
0.220886	-0.017998	0.24133	220	170	70
0.441144	0.347094	0.163488	220	170	70
0.444153	-0.322458	0.166153	220	170	70
0.524776	0.103538	0.11817	220	170	70
0.509966	-0.055608	0.226148	220	170	70
0.235406	0.063074	0.253903	220	170	70
0.237841	-0.059226	0.244783	220	170	70
0.209619	-0.03664	0.24467	220	170	70
0.243007	0.01208	0.246232	220	170	70
0.211093	0.161462	0.162189	220	170	70
0.214089	-0.188375	0.167986	220	170	70
0.247205	0.047246	0.173226	220	170	70
0.21781	-0.089681	0.200037	220	170	70
0.463806	0.211686	0.045438	220	170	70
0.479892	-0.245262	0.037471	220	170	70
0.482167	-0.026267	0.010031	220	170	70
0.499781	-0.067613	0.086627	220	170	70
0.327049	0.115207	0.390983	220	170	70
0.324094	-0.139575	0.368466	220	170	70
0.312614	-0.021586	0.360574	220	170	70
0.345821	-0.03391	0.379159	220	170	70
0.46014	0.386892	-0.159266	220	170	70
0.505396	-0.33218	-0.149475	220	170	70
0.599967	0.088173	-0.195735	220	170	70
0.550832	-0.022065	-0.033637	220	170	70
0.316088	0.184322	0.310225	220	170	70
0.342032	-0.152231	0.281278	220	170	70
0.395736	0.08283	0.2871	220	170	70
0.316064	0.025487	0.419013	220	170	70
0.272879	0.101251	0.236525	220	170	70
0.278125	-0.112238	0.234744	220	170	70
0.275284	0.003478	0.236782	220	170	70
0.285152	-0.025648	0.243288	220	170	70
0.227296	0.066021	-0.051218	220	170	70
0.241382	-0.109695	-0.031804	220	170	70
0.206491	-0.033497	-0.026173	220	170	70
0.271707	-0.041769	0.018933	220	170	70
0.232371	0.170001	0.199734	220	170	70
0.248026	-0.196444	0.193071	220	170	70
0.280978	0.071566	0.193618	220	170	70
0.222142	-0.076708	0.25658	220	170	70
0.266998	0.084732	0.259023	220	170	70
0.270599	-0.082566	0.247995	220	170	70
0.258618	-0.023158	0.244546	220	170	70
0.274831	0.006211	0.267446	220	170	70
0.236423	0.074094	0.255044	220	170	70
0.23874	-0.073897	0.248791	220	170	70
0.226921	-0.014366	0.248376	220	170	70
0.240839	0.004629	0.257222	220	170	70
0.500314	0.527408	-0.072921	220	170	70
0.565702	-0.615018	-0.04357	220	170	70
0.66041	0.222255	-0.12068	220	170	70
0.589994	-0.413804	-0.049623	220	170	70
0.249704	0.187358	-0.019025	220	170	70
0.258386	-0.190918	-0.015449	220	170	70
0.308233	0.056823	-0.031061	220	170	70
0.280322	-0.048601	0.069098	220	170	70
0.394525	0.33685	0.031136	220	170	70
0.409749	-0.36653	0.044025	220	170	70
0.481991	0.137745	-0.001015	220	170	70
0.484386	-0.170435	0.087568	220	170	70
0.22516	0.071583	-0.181417	220	170	70
0.253312	-0.113026	-0.178646	220	170	70
0.244482	-0.037858	-0.170909	220	170	70
0.217097	-0.028448	-0.067317	220	170	70
0.295123	0.078937	0.251499	220	170	70
0.295086	-0.085428	0.244434	220	170	70
0.264004	-0.035498	0.239743	220	170	70
0.304595	-0.000915	0.243633	220	170	70
0.511562	0.16149	0.2912	220	170	70
0.509397	-0.21902	0.250395	220	170	70
0.442818	-0.049757	0.23496	220	170	70
0.552843	-0.077677	0.245906	220	170	70
0.277482	0.209716	0.215267	220	170	70
0.28098	-0.256358	0.208174	220	170	70
0.326477	0.074457	0.199497	220	170	70
0.300446	-0.124689	0.259725	220	170	70
0.28193	0.144275	0.30384	220	170	70
0.275585	-0.072475	0.303084	220	170	70
0.311108	0.010066	0.302557	220	170	70
0.280492	0.045453	0.347445	220	170	70
0.37881	0.295929	0.261752	220	170	70
0.391232	-0.338362	0.265353	220	170	70
0.452759	0.119897	0.234368	220	170	70
0.415863	-0.157387	0.301485	220	170	70
0.328576	0.298949	-0.221945	220	170	70
0.361626	-0.202819	-0.206528	220	170	70
0.472417	0.091201	-0.224296	220	170	70
0.384934	0.012518	-0.092247	220	170	70
0.258722	0.079803	0.24763	220	170	70
0.262036	-0.081772	0.236447	220	170	70
0.246171	-0.019619	0.238	220	170	70
0.261377	0.001574	0.254761	220	170	70
0.335771	0.349771	-0.137405	220	170	70
0.381405	-0.328773	-0.108061	220	170	70
0.48269	0.133216	-0.157705	220	170	70
0.424338	-0.106185	-0.045625	220	170	70
0.256928	0.087378	0.249995	220	170	70
0.257451	-0.08847	0.244576	220	170	70
0.245852	-0.008941	0.24759	220	170	70
0.269379	-0.003398	0.252658	220	170	70
0.273795	0.073071	0.253182	220	170	70
0.276957	-0.079606	0.248421	220	170	70
0.248103	-0.040912	0.239716	220	170	70
0.28472	0.00335	0.239928	220	170	70
0.275922	0.133576	0.265365	220	170	70
0.276005	-0.158753	0.257795	220	170	70
0.27484	0.010914	0.264489	220	170	70
0.294389	-0.052243	0.274838	220	170	70
0.446712	0.094715	-0.33398	220	170	70
0.478348	-0.206917	-0.320808	220	170	70
0.399833	-0.098355	-0.345161	220	170	70
0.509233	-0.063804	-0.268776	220	170	70
0.282887	0.09506	0.247165	220	170	70
0.285019	-0.093975	0.234306	220	170	70
0.259495	-0.032853	0.221087	220	170	70
0.287602	0.00013	0.254076	220	170	70
0.365828	0.394886	0.06997	220	170	70
0.368708	-0.401882	0.084038	220	170	70
0.471735	0.185559	0.04101	220	170	70
0.42386	-0.176088	0.143521	220	170	70
0.250922	0.084309	0.273009	220	170	70
0.252829	-0.091266	0.262816	220	170	70
0.22787	-0.032501	0.267283	220	170	70
0.255603	-0.00986	0.265452	220	170	70
0.37836	0.265367	0.152029	220	170	70
0.381569	-0.24614	0.149536	220	170	70
0.439522	0.074057	0.131017	220	170	70
0.403689	-0.05026	0.204259	220	170	70
0.271539	0.128325	0.257797	220	170	70
0.293698	-0.0823	0.239794	220	170	70
0.289342	-0.018038	0.239729	220	170	70
0.264211	0.030602	0.305112	220	170	70
0	0	0	170	170	170
-0.374146	0.487228	0.045065	170	170	170
0.009667	-0.465685	0.123415	170	170	170
-0.260337	-0.300353	0.148603	170	170	170
0.102313	-0.412746	0.121307	170	170	170
-0.486642	-0.200988	0.125533	170	170	170
0	0	0	170	170	170
0	0	0	170	170	170
0	0	0	170	170	170
-0.241796	-0.465685	-0.189985	170	170	170
-0.036436	-0.464835	0.11037	170	170	170
-0.446936	0.222531	-0.043871	170	170	170
0	0	0	170	170	170
0	0	0	170	170	170
-0.25193	0.010913	0.514985	170	170	170
0	0	0	170	170	170
0	0	0	170	170	170
0	0	0	170	170	170
0.155252	-0.412746	-0.306449	170	170	170
-0.089594	0.063711	0.354236	170	170	170
-0.023419	-0.200988	-0.031167	170	170	170
-0.043272	-0.412746	-0.289506	170	170	170
0	0	0	170	170	170
0.229602	-0.371159	0.285433	170	170	170
0.003051	-0.095107	-0.372095	170	170	170
-0.231954	-0.171425	0.45812	170	170	170
-0.084786	0.268062	-0.323947	170	170	170
-0.270056	0.072602	0.25136	170	170	170
-0.191153	-0.520755	-0.164993	170	170	170
0.018438	0.020185	0.389592	170	170	170
0.162587	-0.408582	0.161895	170	170	170
-0.15577	0.381349	-0.33186	170	170	170
-0.14265	0.38958	0.104679	170	170	170
0.092241	0.225371	0.196388	170	170	170
-0.169003	0.169592	0.443171	170	170	170
0.245453	-0.508434	-0.182445	170	170	170
0.022904	-0.306867	0.206003	170	170	170
-0.102828	-0.306867	0.03024	170	170	170
0	0	0	170	170	170
-0.508484	0.000927	0.068564	170	170	170
-0.003566	0.487228	-0.12858	170	170	170
0	0	0	170	170	170
-0.006421	-0.15515	-0.291788	170	170	170
0	0	0	170	170	170
-0.040067	-0.465029	-0.252496	170	170	170
-0.003566	0.487228	-0.192105	170	170	170
-0.691782	0.11665	-0.137045	170	170	170
-0.347674	-0.253928	-0.196332	170	170	170
-0.080355	0.069952	0.331415	170	170	170
0	0	0	170	170	170
0.142013	0.0534	0.565355	170	170	170
0.029525	0.218053	0.101396	170	170	170
0.161838	-0.363705	0.280669	170	170	170
0	0	0	170	170	170
0	0	0	170	170	170
0	0	0	170	170	170
-0.456211	0.372513	-0.031853	170	170	170
0	0	0	170	170	170
0	0	0	170	170	170
0	0	0	170	170	170
0.135399	-0.306867	-0.192105	170	170	170
0	0	0	170	170	170
-0.042167	-0.252626	0.042831	170	170	170
0.207354	-0.579776	-0.146239	170	170	170
-0.051724	-0.156388	-0.249042	170	170	170
-0.037883	-0.682717	-0.126084	170	170	170
0.306227	0.683336	-0.260225	170	170	170
-0.294258	0.503404	0.076182	170	170	170
0	0	0	170	170	170
0	0	0	170	170	170
-0.347674	0.063711	0.341532	170	170	170
-0.262012	-0.303208	0.189222	170	170	170
0	0	0	170	170	170
-0.380763	0.063711	-0.19845	170	170	170
0.29424	-0.423268	-0.36277	170	170	170
-0.056508	0.063711	-0.297984	170	170	170
0.179777	-0.29611	0.240704	170	170	170
0.023239	0.010953	0.211513	170	170	170
0.107941	0.218668	-0.02836	170	170	170
-0.392852	-0.2551	0.12518	170	170	170
0.0213	-0.287284	0.138814	170	170	170
-0.116904	0.332102	0.123261	170	170	170
-0.081167	-0.413837	-0.326234	170	170	170
-0.234745	0.11105	0.313014	170	170	170
0.135399	-0.253928	-0.219634	170	170	170
0.041387	-0.041966	-0.055259	170	170	170
0.320689	0.593109	-0.23022	170	170	170
0.115546	0.32841	-0.022699	170	170	170
-0.341057	0.169592	0.339411	170	170	170
-0.096211	0.11665	0.489766	170	170	170
0	0	0	170	170	170
0.128782	-0.253928	-0.211156	170	170	170
0	0	0	170	170	170
-0.049889	-0.148046	-0.081985	170	170	170
0	0	0	170	170	170
0	0	0	170	170	170
-0.049889	-0.359806	-0.327621	170	170	170
0.037448	0.229756	0.086586	170	170	170
0	0	0	170	170	170
0.042754	-0.359806	0.252596	170	170	170
-0.271957	0.01968	0.328106	170	170	170
0	0	0	170	170	170
-0.161136	0.114295	0.453969	170	170	170
0.009544	-0.475005	0.174375	170	170	170
0	0	0	170	170	170
-0.17562	0.434289	-0.325513	170	170	170
-0.292657	0.011417	0.440624	170	170	170
0.075843	-0.624505	-0.372095	170	170	170
-0.511409	-0.097868	-0.216669	170	170	170
-0.149768	0.336083	0.362312	170	170	170
0	0	0	170	170	170
-0.453555	-0.200988	0.129772	170	170	170
-0.218995	-0.305477	0.465874	170	170	170
-0.043272	0.11665	-0.558444	170	170	170
-0.5462	0.11665	-0.137045	170	170	170
-0.367527	0.010772	0.383885	170	170	170
0	0	0	170	170	170
0	0	0	170	170	170
-0.135917	0.32841	0.341532	170	170	170
0.221427	0.54017	-0.077747	170	170	170
-0.459247	0.382103	-0.025433	170	170	170
0.127539	-0.251996	0.014051	170	170	170
0.045096	-0.142945	-0.330143	170	170	170
-0.321656	-0.095082	0.442642	170	170	170
0	0	0	170	170	170
0	0	0	170	170	170
0	0	0	170	170	170
0	0	0	170	170	170
0.15567	0.332644	0.435808	170	170	170
-0.024781	-0.307891	-0.373704	170	170	170
-0.264634	0.12478	0.267121	170	170	170
0.098661	0.274956	0.480252	170	170	170
-0.082978	0.275471	-0.291625	170	170	170
0	0	0	170	170	170
-0.228562	-0.306867	0.47706	170	170	170
0	0	0	170	170	170
-0.579287	0.010772	-0.225981	170	170	170
0.041435	0.016077	-0.20605	170	170	170
-0.353025	0.019206	0.357161	170	170	170
-0.227821	-0.360772	0.191282	170	170	170
-0.17179	0.110477	-0.342229	170	170	170
0	0	0	170	170	170
0	0	0	170	170	170
0	0	0	170	170	170
0	0	0	170	170	170
0.192943	-0.104836	0.476255	170	170	170
-0.109447	0.010772	0.513056	170	170	170
-0.36091	0.275471	-0.12646	170	170	170
-0.329528	0.329141	0.168913	170	170	170
-0.072871	0.491378	0.217381	170	170	170
0	0	0	170	170	170
-0.453555	0.434289	0.051422	170	170	170
-0.094481	0.065965	0.364305	170	170	170
-0.127732	-0.30196	0.152946	170	170	170
-0.061927	-0.616784	-0.199648	170	170	170
-0.1293	-0.359806	0.129772	170	170	170
-0.240653	0.105222	-0.330115	170	170	170
-0.513533	-0.206344	-0.141839	170	170	170
0.081353	0.340945	-0.087536	170	170	170
0.185158	0.4918	-0.19232	170	170	170
0.148635	-0.253928	0.009068	170	170	170
0	0	0	170	170	170
-0.263825	-0.051052	0.303727	170	170	170
0	0	0	170	170	170
0	0	0	170	170	170
-0.160778	0.122493	-0.900273	170	170	170
-0.519728	0.11665	-0.179399	170	170	170
-0.346403	0.222864	-0.101306	170	170	170
-0.056758	0.074249	-0.043571	170	170	170
0.103672	-0.347521	-0.005807	170	170	170
-0.519728	-0.095107	0.045065	170	170	170
-0.525916	0.106352	-0.174847	170	170	170
-0.036741	0.119737	-0.480917	170	170	170
-0.400616	-0.095107	-0.012103	170	170	170
0.168488	-0.200988	-0.295863	170	170	170
-0.102999	0.550022	0.098163	170	170	170
0.130678	-0.514693	0.187941	170	170	170
-0.669267	0.175261	-0.177722	170	170	170
-0.013791	-0.207575	-0.032102	170	170	170
0.087755	-0.190771	0.138623	170	170	170
-0.320481	-0.297048	0.168144	170	170	170
0	0	0	170	170	170
0.116784	-0.105075	0.463521	170	170	170
-0.420469	0.266476	-0.077348	170	170	170
-0.096211	-0.306867	0.078953	170	170	170
0	0	0	170	170	170
-0.275407	0.121068	0.240316	170	170	170
0	0	0	170	170	170
0	0	0	170	170	170
0.081035	-0.198399	-0.055985	170	170	170
-0.380864	0.440633	0.038698	170	170	170
0	0	0	170	170	170
-0.010185	-0.412746	0.131893	170	170	170
-0.262607	0.441553	0.173051	170	170	170
-0.384382	0.11899	0.05181	170	170	170
-0.24462	-0.263497	0.457126	170	170	170
0.214808	0.381349	0.216589	170	170	170
0	0	0	170	170	170
0	0	0	170	170	170
0	0	0	170	170	170
-0.063125	0.063711	-0.035406	170	170	170
0.05599	0.11665	-0.427155	170	170	170
0	0	0	170	170	170
0	0	0	170	170	170
0.095696	0.010772	0.316121	170	170	170
-0.321205	0.32841	-0.23022	170	170	170
0	0	0	170	170	170
0	0	0	170	170	170
0.030627	0.007811	-0.181931	170	170	170
-0.242191	-0.529026	-0.172101	170	170	170
-0.408562	-0.199942	0.108762	170	170	170
-0.010185	0.010772	-0.427155	170	170	170
-0.056508	0.11665	0.019654	170	170	170
-0.453555	-0.095107	0.055663	170	170	170
0	0	0	170	170	170
0.062607	-0.624505	-0.365748	170	170	170
0	0	0	170	170	170
-0.57757	0.004334	-0.142744	170	170	170
-0.166782	0.440472	-0.319234	170	170	170
0	0	0	170	170	170
0	0	0	170	170	170
-0.305222	0.015979	-0.115155	170	170	170
0.115546	0.169592	0.191179	170	170	170
0.188338	0.275471	0.443171	170	170	170
-0.281501	0.32841	0.36906	170	170	170
0.042754	0.487228	-0.156096	170	170	170
0	0	0	170	170	170
0.206908	0.425087	-0.091916	170	170	170
-0.076358	0.11665	-0.416569	170	170	170
0.074279	-0.264294	0.236604	170	170	170
0.108929	-0.624505	-0.223861	170	170	170
0.006641	0.159566	0.393402	170	170	170
0	0	0	170	170	170
-0.4002	0.543597	0.049558	170	170	170
0	0	0	170	170	170
0	0	0	170	170	170
-0.171979	-0.190987	0.052774	170	170	170
-0.255032	0.169592	0.091657	170	170	170
-0.15577	-0.095107	0.510935	170	170	170
0	0	0	170	170	170
0	0	0	170	170	170
-0.450537	0.23196	-0.052238	170	170	170
-0.375281	-0.035032	-0.172164	170	170	170
-0.38738	0.434289	-0.317035	170	170	170
-0.408302	-0.152028	-0.137583	170	170	170
0.234661	0.169592	0.466474	170	170	170
0	0	0	170	170	170
0.039234	-0.078477	-0.133818	170	170	170
0	0	0	170	170	170
-0.539581	-0.148046	-0.156096	170	170	170
0.038238	-0.047655	0.316991	170	170	170
-0.268265	-0.253928	0.182711	170	170	170
0	0	0	170	170	170
-0.451266	0.445558	0.042198	170	170	170
-0.412037	-0.137173	-0.036783	170	170	170
0.085405	-0.450036	-0.395602	170	170	170
-0.056508	0.010772	-0.009982	170	170	170
0	0	0	170	170	170
0	0	0	170	170	170
0.002514	0.380479	-0.209006	170	170	170
0	0	0	170	170	170
0	0	0	170	170	170
0.075843	-0.148046	-0.060816	170	170	170
0	0	0	170	170	170
-0.235179	0.32841	0.386006	170	170	170
-0.122681	0.11665	-0.962898	170	170	170
-0.302436	0.329103	-0.232487	170	170	170
0	0	0	170	170	170
-0.14274	0.166516	0.13717	170	170	170
-0.344025	-0.263217	-0.149482	170	170	170
0.194958	0.487228	-0.200571	170	170	170
-0.019536	0.225134	0.164525	170	170	170
-0.043065	0.48487	0.212378	170	170	170
0	0	0	170	170	170
-0.10246	0.222975	0.168592	170	170	170
-0.427086	0.063711	0.366942	170	170	170
0.143693	0.380598	0.446182	170	170	170
-0.126226	-0.347884	-0.302014	170	170	170
0.046562	-0.044838	-0.080853	170	170	170
-0.255032	0.11665	0.017534	170	170	170
0.128782	0.063711	0.519416	170	170	170
-0.201348	0.159125	0.464378	170	170	170
0.033512	0.223646	0.358058	170	170	170
-0.316353	-0.106038	0.414972	170	170	170
-0.450247	0.439566	-0.166405	170	170	170
0.264335	0.646222	-0.062286	170	170	170
-0.194394	-0.053278	0.238339	170	170	170
-0.079286	0.546973	-0.316738	170	170	170
0	0	0	170	170	170
-0.096211	-0.518627	-0.162456	170	170	170
-0.100871	0.531631	0.331327	170	170	170
0	0	0	170	170	170
0	0	0	170	170	170
-0.140524	0.123297	-0.309833	170	170	170
0	0	0	170	170	170
-0.073161	0.075646	-0.022999	170	170	170
-0.288118	0.434289	-0.211156	170	170	170
-0.420466	0.11665	0.028132	170	170	170
0.078932	-0.147754	-0.058726	170	170	170
0.027859	0.02132	0.457257	170	170	170
-0.033939	0.012527	0.211193	170	170	170
-0.064194	0.002657	0.380123	170	170	170
0.016284	-0.148046	0.462235	170	170	170
-0.142534	-0.253928	0.142478	170	170	170
-0.616819	0.10814	-0.239008	170	170	170
0.161869	0.11665	-0.274682	170	170	170
-0.096211	-0.200988	0.106482	170	170	170
0.100015	-0.050456	-0.077421	170	170	170
0.148635	-0.253928	-0.001517	170	170	170
0.242624	0.535053	-0.229511	170	170	170
0.183078	0.447812	0.186347	170	170	170
0	0	0	170	170	170
0.27744	-0.520097	-0.149412	170	170	170
0.047358	0.325555	0.136709	170	170	170
-0.465541	0.31591	-0.251435	170	170	170
-0.175376	0.216116	0.248395	170	170	170
0.009667	0.381349	-0.217516	170	170	170
-0.188856	-0.412746	-0.062922	170	170	170
0	0	0	170	170	170
-0.002068	0.438679	0.073761	170	170	170
0.294219	0.54017	-0.137045	170	170	170
0.229159	0.52617	-0.232792	170	170	170
-0.189769	-0.358485	-0.106176	170	170	170
-0.16313	0.325828	0.323873	170	170	170
0.075843	0.32841	-0.067161	170	170	170
-0.281501	-0.200988	0.176354	170	170	170
0.108929	0.11665	0.093778	170	170	170
0	0	0	170	170	170
-0.016802	-0.200988	-0.115861	170	170	170
0.004211	-0.104336	-0.378798	170	170	170
-0.010185	0.593109	-0.185746	170	170	170
0.002493	0.333577	-0.132701	170	170	170
-0.312775	-0.292337	0.200179	170	170	170
-0.103703	0.484106	0.014334	170	170	170
-0.178823	0.010466	0.109985	170	170	170
0	0	0	170	170	170
-0.393997	0.010772	0.362703	170	170	170
0	0	0	170	170	170
-0.532964	-0.095107	-0.194224	170	170	170
-0.1165	0.113483	-0.331464	170	170	170
0	0	0	170	170	170
-0.159716	0.070398	0.474223	170	170	170
0.090413	-0.370183	0.272968	170	170	170
-0.356883	-0.30085	-0.152982	170	170	170
0.09124	0.325086	0.031922	170	170	170
0	0	0	170	170	170
0.060093	0.340637	0.045025	170	170	170
0	0	0	170	170	170
0	0	0	170	170	170
-0.374146	-0.095107	-0.103157	170	170	170
0.079779	-0.088415	-0.231052	170	170	170
-0.090154	0.376586	0.075731	170	170	170
-0.31634	-0.295293	-0.157468	170	170	170
-0.537556	0.113775	-0.148743	170	170	170
0	0	0	170	170	170
-0.374146	-0.253928	0.134013	170	170	170
0.02952	0.010772	0.381767	170	170	170
-0.41385	0.063711	0.354236	170	170	170
0	0	0	170	170	170
-0.600625	0.003769	-0.196997	170	170	170
0	0	0	170	170	170
0	0	0	170	170	170
0.069226	-0.200988	0.186953	170	170	170
-0.003566	0.381349	0.045065	170	170	170
-0.228562	0.222531	-0.031167	170	170	170
-0.334441	0.063711	-0.217516	170	170	170
-0.29062	-0.209501	0.173363	170	170	170
-0.309028	0.475	0.123526	170	170	170
0	0	0	170	170	170
-0.387138	-0.144014	-0.00585	170	170	170
-0.276418	-0.097523	-0.145556	170	170	170
-0.153092	0.084676	0.348161	170	170	170
0.089076	-0.465685	-0.382681	170	170	170
-0.578266	-0.201336	-0.063648	170	170	170
0.081602	-0.089027	0.424317	170	170	170
0	0	0	170	170	170
-0.053674	0.544406	-0.318071	170	170	170
0	0	0	170	170	170
0.062607	-0.095107	0.523642	170	170	170
0.043624	-0.046906	-0.063391	170	170	170
-0.03459	0.023412	0.220546	170	170	170
0	0	0	170	170	170
-0.255165	0.008956	0.531323	170	170	170
0	0	0	170	170	170
0	0	0	170	170	170
-0.56682	0.285845	-0.138901	170	170	170
0.098086	0.021138	0.307948	170	170	170
-0.195473	0.275471	0.314003	170	170	170
0	0	0	170	170	170
-0.248412	-0.465685	-0.196332	170	170	170
0.219544	0.425427	0.297572	170	170	170
0.108929	0.11665	-0.374213	170	170	170
0	0	0	170	170	170
0.068104	-0.267456	0.236667	170	170	170
0	0	0	170	170	170
-0.076358	0.063711	-0.020581	170	170	170
-0.281501	-0.042168	-0.009982	170	170	170
-0.119597	0.125965	0.024468	170	170	170
0.026661	-0.086892	-0.157998	170	170	170
-0.460172	-0.200988	-0.101049	170	170	170
-0.525397	-0.095216	-0.188348	170	170	170
-0.365159	0.175994	0.083661	170	170	170
0	0	0	170	170	170
-0.109447	0.11665	-0.319156	170	170	170
0	0	0	170	170	170
0	0	0	170	170	170
-0.14915	0.275471	-0.30857	170	170	170
-0.59914	0.010772	-0.090453	170	170	170
0.230041	0.707498	-0.068538	170	170	170
0	0	0	170	170	170
-0.158392	0.127531	-0.408389	170	170	170
-0.010185	0.222531	0.373302	170	170	170
0	0	0	170	170	170
-0.010185	-0.518627	0.146717	170	170	170
-0.496476	-0.036842	0.065321	170	170	170
0	0	0	170	170	170
-0.208709	0.434289	-0.325513	170	170	170
-0.066501	0.159788	0.034645	170	170	170
-0.215326	0.434289	-0.306449	170	170	170
-0.687914	0.066263	-0.107555	170	170	170
-0.094857	0.105162	-0.214977	170	170	170
-0.255032	-0.148046	0.318242	170	170	170
0.035968	0.213103	-0.311959	170	170	170
0	0	0	170	170	170
0.010482	0.335929	-0.261821	170	170	170
0	0	0	170	170	170
0	0	0	170	170	170
0.183454	0.32317	0.419332	170	170	170
-0.072626	0.109085	-0.046102	170	170	170
-0.128453	0.338471	0.049301	170	170	170
-0.049889	-0.412746	-0.293745	170	170	170
0.093857	-0.314603	-0.310045	170	170	170
0.128782	0.169592	-0.314917	170	170	170
0	0	0	170	170	170
0.148635	0.32841	0.42412	170	170	170
0.122165	0.381349	-0.003636	170	170	170
-0.148861	0.607873	-0.221581	170	170	170
0.058265	0.393645	-0.114484	170	170	170
0	0	0	170	170	170
-0.625609	0.11665	-0.234459	170	170	170
0	0	0	170	170	170
-0.237136	-0.45341	-0.197545	170	170	170
-0.056508	0.063711	-0.336099	170	170	170
-0.407233	-0.200988	-0.062922	170	170	170
0	0	0	170	170	170
-0.327312	0.006114	-0.158366	170	170	170
-0.113457	0.216199	0.159462	170	170	170
0	0	0	170	170	170
0	0	0	170	170	170
-0.58605	-0.001547	-0.224289	170	170	170
-0.169003	-0.200988	-0.179399	170	170	170
0.201574	-0.412746	-0.164574	170	170	170
-0.016802	0.222531	0.256822	170	170	170
0.256786	-0.460884	-0.192496	170	170	170
0	0	0	170	170	170
-0.082047	0.186414	0.286308	170	170	170
0.078188	-0.457674	-0.385394	170	170	170
-0.061344	-0.204461	0.051825	170	170	170
